X Y Z
10.23597747 -4.724151777 -0.101137612
11.08273386 -4.635205539 -0.21933539
15.43598871 -5.811069419 -0.4601313
11.8216822 -5.993971606 -0.476752301
17.51949524 -6.611767891 2.920632924
22.77460245 -11.59134994 3.774954776
17.56825913 -6.640682236 2.226918461
27.28928535 -12.66740992 3.0279114
27.3556786 -11.5027795 2.708011583
27.38747752 -13.95416527 2.267467604
27.33828613 -12.69479489 1.934403921
10.9903485 -4.62584321 0.652052788
17.89629537 -6.785390028 0.86510097
27.34239676 -13.94201812 1.140972865
10.65856912 -4.956194193 0.324227453
11.12096751 -4.686305418 0.218022527
27.06846478 -13.81484217 0.020685815
10.12714594 -4.711664549 -0.100204643
11.11083754 -4.687061275 -0.220175115
15.23680871 -5.789518128 -0.454721284
11.77831933 -6.017481324 -0.475745787
10.20469623 -4.753379334 -0.50982013
18.4787765 -9.492329921 6.349740416
17.51390197 -6.671113311 2.923098649
22.76270172 -11.67335534 3.778900366
17.55522633 -6.697381534 2.227860453
48.09213702 -24.66300567 5.978342573
27.42783021 -12.8341454 3.047638154
27.33492946 -11.59287245 2.70946546
27.37647701 -14.05451998 2.270115958
27.33807393 -12.79680041 1.937157775
10.98070075 -4.66149031 0.652325778
17.88565579 -6.844190263 0.865597655
27.31549523 -14.03405795 1.141641629
10.63697799 -4.985901075 0.324034453
11.10653749 -4.720401833 0.218022527
18.53576712 -9.531829331 0.014187379
18.33493653 -8.598872357 -0.181678105
11.25188903 -4.787279339 -0.223260236
15.10230823 -5.791496865 -0.451235426
11.71004489 -6.027974508 -0.473732819
18.59225181 -9.622826748 6.398847492
18.45175263 -9.542352231 5.480745735
17.53485457 -6.740767971 2.93003353
22.73117562 -11.74540598 3.779631119
27.40182366 -12.92459897 3.04914019
27.36332636 -11.70409555 2.715826706
27.41551526 -10.57096862 2.402808748
27.32968636 -14.13661057 2.269821749
27.31944373 -12.89040657 1.938630844
10.96634791 -4.695156702 0.652325778
17.92048872 -6.920623492 0.868306865
27.3362062 -14.15087105 1.144316327
10.62615035 -5.020646813 0.324172319
11.09476 -4.755635579 0.218076723
27.89295977 -10.77519957 0.25938393
18.49311817 -9.581750565 0.014177169
18.26055523 -8.632431628 -0.181202639
11.23898636 -4.822566079 -0.223296744
14.96793972 -5.792705535 -0.447749597
11.67020455 -6.052829238 -0.472870131
18.27747529 -9.523408342 5.437632505
18.47815761 -9.621002811 4.670812527
22.74153995 -11.83930021 3.787376383
17.51102386 -6.80389324 2.227507117
22.39934446 -11.66115249 2.793308775
27.39618886 -13.02483974 3.05294535
10.84496113 -4.678117907 1.077788428
27.36623673 -10.64852287 2.401341522
22.66876884 -11.81399103 1.88571845
27.36267966 -13.01359345 1.944523002
10.95280795 -4.729174599 0.652380375
27.33742593 -10.65379646 1.326166083
27.31126985 -14.2443751 1.145096433
27.30966088 -13.00591605 0.83435011
11.09572012 -4.796395947 0.218383791
27.66598392 -10.78517802 0.257579697
18.43260816 -9.622245374 0.014153345
18.30349431 -8.721534446 -0.181893397
11.02685384 -4.771652673 -0.219371898
14.94264903 -5.835689947 -0.447526497
11.6312085 -6.077959279 -0.472043356
18.04674786 -9.466870629 4.56908266
48.39322947 -23.14293744 11.46565037
17.40672793 -9.131132239 3.648055594
22.64816673 -11.87914655 3.77787755
17.48914298 -6.857221855 2.227389338
18.35059084 -9.625033901 2.292080919
27.34623045 -13.10409933 3.051843857
10.77850531 -4.688724712 1.072608427
27.38167966 -10.75137289 2.405579887
18.45506289 -9.690100705 1.537663922
27.36042278 -13.11559697 1.94721284
10.93916342 -4.763153956 0.652434974
27.31576773 -10.74200381 1.32670789
27.28070998 -14.33507028 1.145653736
27.31739333 -13.11256528 0.835811496
11.11578077 -4.845596891 0.219070198
27.35732146 -10.76165249 0.255012138
18.16314935 -9.552604806 0.013968881
18.19552525 -8.738686005 -0.181086022
10.94434984 -4.775868393 -0.218021018
14.80842429 -5.835694196 -0.444040639
11.60366353 -6.108959358 -0.471683909
17.37341708 -9.181736287 3.646960777
18.27615793 -9.65760436 2.286473792
27.36234387 -13.21519604 3.058152412
10.76589427 -4.722570741 1.072790221
27.38192424 -10.84854429 2.408513868
18.39791908 -9.732218078 1.535383211
27.35779525 -13.21770981 1.949902679
10.94004084 -4.803516815 0.653363197
27.30311162 -10.83386235 1.327701261
18.41356535 -9.747899178 0.774530125
27.33192676 -13.22286769 0.83749342
11.04594365 -4.855536103 0.217986407
18.12668968 -9.604538349 0.013963436
18.22893396 -8.823657773 -0.181687075
10.74204084 -4.726869656 -0.214278711
11.36941037 -4.520796659 -0.341333759
11.56897582 -6.13610106 -0.471036871
17.31392147 -9.218359162 3.640391628
48.13315286 -19.1846205 8.081670847
17.78166784 -9.466203538 2.975743512
22.88150906 -11.12889893 3.507616067
27.33598572 -13.30604781 3.059754585
10.77139098 -4.76444059 1.07478948
27.36146777 -10.93767865 2.409654938
17.90855605 -9.543783439 1.496980296
27.3413407 -13.31337643 1.951631929
10.9161221 -4.833015037 0.652817159
11.21524339 -4.490077735 0.546044459
17.8642225 -9.527365012 0.752649081
27.30381124 -13.3127926 0.83787942
10.71472668 -4.749218219 0.211736547
11.16082071 -4.469645532 0.104289634
17.87482676 -9.541437489 0.013791905
18.16223483 -8.860251211 -0.181292359
16.04462263 -7.119024533 -0.32048705
11.34528233 -4.551561765 -0.341027004
11.56948757 -6.181926851 -0.471827676
17.69064437 -9.487516221 2.965368012
22.88995456 -11.21997524 3.514171147
17.63056311 -9.455294999 2.212922375
27.33344588 -13.40869332 3.064060425
10.68396295 -4.765013104 1.067519383
27.36845363 -11.03797437 2.41324123
17.78253656 -9.54679194 1.488887654
27.36397471 -13.42840993 1.956179048
10.99606837 -4.908814232 0.658495753
11.16806975 -4.510995393 0.544418921
17.77152686 -9.548073917 0.749974322
27.3112862 -13.42030198 0.839368344
10.55496733 -4.717203103 0.208864497
11.1303671 -4.497122636 0.1041335
17.84018538 -9.593389522 0.013787821
18.16457918 -8.93048994 -0.181588385
16.00354058 -7.15964085 -0.320103703
11.27474313 -4.563469913 -0.339325917
11.4827098 -6.180919794 -0.469059845
48.08594576 -19.50857154 8.09369191
22.98332218 -11.35332665 3.53383615
17.53326289 -9.472489438 2.204346698
27.34926364 -13.52070836 3.070469117
27.37213854 -12.30870466 2.738727526
27.33815404 -11.12339044 2.413567149
17.72246107 -9.584697968 1.486312733
27.36916348 -13.53530253 1.959509398
10.99097297 -4.947034475 0.659096389
10.97285379 -4.471349534 0.535568764
17.66393225 -9.560217588 0.746667993
27.32910598 -13.53330609 0.841188133
27.25948997 -12.28322485 0.540161224
11.12948157 -4.536533119 0.104254944
17.67789785 -9.576155055 0.013685038
18.02867826 -8.932459568 -0.18050291
16.01248767 -7.222682917 -0.320724366
11.46808542 -6.218500974 -0.469239553
11.58308281 -5.745482952 -0.585553494
17.46691757 -9.52140666 6.080527219
17.45544653 -9.507646349 5.244260254
17.42203549 -9.482746081 4.44722597
17.42181865 -9.481446097 2.930003384
22.94660989 -11.42290172 3.533562924
47.96760437 -21.72604979 6.747571011
17.46745233 -9.506281334 2.199729245
27.28806201 -13.59479066 3.068266129
27.32880526 -12.3901561 2.738182263
27.36567512 -11.23256689 2.419027888
17.50380794 -9.535969073 1.470421896
27.3444787 -13.62766367 1.960726286
10.96392336 -4.975367116 0.658386557
10.91381047 -4.486381698 0.53335624
17.48711929 -9.53400229 0.74042685
27.30355773 -13.62512115 0.841684461
27.30724701 -12.40567228 0.541859122
11.11366185 -4.569895932 0.104237592
17.52642051 -9.563764022 0.013590424
17.98329565 -8.97879475 -0.1803235
11.40642809 -4.698428527 -0.344150317
11.44456736 -6.251260091 -0.469059845
11.47961856 -5.73811389 -0.581210342
17.35463528 -9.529380481 6.051589399
17.4024602 -9.54813135 5.237117235
17.38601497 -9.532398919 4.445475975
17.34347025 -9.509071871 3.670865099
48.02070469 -21.89751926 8.742975996
17.36402106 -9.519157293 2.925180891
22.92119608 -11.49813364 3.535065198
17.42077371 -9.550269635 2.197530311
27.37782828 -13.74451427 3.083086228
27.3649334 -12.50788875 2.745634035
27.36515756 -11.33057825 2.422043644
17.420265 -9.559878413 1.465860592
27.33999782 -13.73030223 1.963416125
10.92409199 -4.997764674 0.656912296
10.95536203 -4.542802902 0.53606545
17.41924579 -9.566441493 0.738792312
27.35450687 -13.75552822 0.844552041
27.26360328 -12.48689294 0.541750761
11.11067322 -4.608568384 0.104341684
17.4356515 -9.583770928 0.013542777
17.94226497 -9.027182869 -0.180188943
15.92515156 -7.301213349 -0.319866387
11.44180788 -4.754112881 -0.345656199
11.42095707 -6.283933107 -0.468880107
11.42627306 -5.755330235 -0.579400744
17.32531813 -9.582579139 6.0515894
17.3781635 -9.604283015 5.238647884
17.34302238 -9.578145227 4.441975515
17.37188091 -9.594083668 3.683090966
17.36504543 -9.589122424 2.930295448
22.89023313 -11.57063487 3.535748029
47.93790851 -22.06807862 6.762314815
17.36441843 -9.588775936 2.194122116
27.28758787 -13.80418972 3.077678894
27.33185848 -12.59428521 2.746179299
27.36245549 -11.42792353 2.424896085
17.40918156 -9.623409777 1.467405544
27.35295137 -13.84205283 1.967386867
27.34113294 -12.61013055 1.64645782
11.02247526 -4.610313979 0.540038993
17.31636224 -9.579205171 0.735671711
27.28810193 -13.82718672 0.843807579
27.254213 -12.58388988 0.542328747
11.11031898 -4.648422982 0.104471793
17.34230308 -9.601857823 0.013493087
17.85740467 -9.053248014 -0.179614801
15.87363383 -7.336613488 -0.319282231
11.12016955 -4.660528197 -0.336369914
11.39375838 -6.314582631 -0.468556603
11.34798738 -5.75961443 -0.57632437
17.32090068 -9.649650596 6.060358437
17.28797274 -9.617077234 4.435412326
17.33291378 -9.642077359 3.68108372
17.7519043 -9.03436596 3.495696661
48.11347624 -20.21083939 8.139461601
17.33467986 -9.64187155 2.930149297
22.85462704 -11.6408069 3.535748029
17.29843799 -9.621712506 2.189504664
27.36655342 -13.94974609 3.0913975
27.31296026 -12.68730838 2.748178676
27.35665718 -11.52419837 2.427504383
17.39525931 -9.685507502 1.468729839
27.33436053 -13.93814473 1.969116117
27.29416683 -12.69016363 1.645966439
11.01748344 -4.647991805 0.540490558
17.3357772 -9.659524011 0.737752092
27.29718919 -13.93720455 0.845406771
27.22726304 -12.67292995 0.542563589
11.10982491 -4.688318658 0.10460191
17.35555761 -9.678884375 0.013526441
17.87585145 -9.131645724 -0.180081282
10.17766147 -4.741948303 -0.205005107
11.20249561 -4.735489304 -0.339298022
11.34815407 -6.33489548 -0.467478206
11.27867798 -5.768020576 -0.573700395
17.25785442 -9.684025037 6.048666388
17.31182736 -9.700014733 3.682908575
17.63295462 -9.042044705 3.477719423
48.14768008 -20.39921363 8.155797089
17.27049632 -9.675667082 2.924303989
22.81616307 -11.70951187 3.535338426
17.24715871 -9.662592908 2.186755936
27.36256964 -14.05364182 3.095803475
27.34876417 -12.80609565 2.755721287
27.34777598 -11.61937513 2.429867827
17.39068811 -9.752977001 1.470863328
27.31010994 -14.03151739 1.970461036
22.76427468 -10.66909258 1.37476006
11.0086868 -4.684117598 0.540761461
17.31738975 -9.719021963 0.738235068
18.48183199 -9.507917336 0.57329172
22.64345248 -10.62403593 0.451868387
11.08986859 -4.720031402 0.104549861
17.34932218 -9.745307715 0.013544818
17.7935171 -9.158530399 -0.179534066
15.79935931 -7.420272988 -0.318698046
10.98837617 -4.684765264 -0.333246601
11.31821222 -6.363803535 -0.467046847
11.18811149 -5.765074341 -0.569990602
16.84342232 -9.519535199 5.913621336
18.5070138 -9.553485625 6.120344863
18.48065933 -9.539881421 5.26185351
17.53950171 -9.062190514 3.464755173
47.93223488 -22.57174057 8.776642605
17.19334403 -9.701868226 2.91626666
22.77661125 -11.77763573 3.534791972
17.25032783 -9.734022097 2.190933746
27.32992919 -14.14300993 3.097005105
27.35977954 -12.9137446 2.760810332
10.85407571 -4.650983848 0.965655052
17.36502668 -9.808737028 1.471231208
22.7036863 -11.75298728 1.64069524
27.34760021 -12.91967053 1.653938203
10.99701899 -4.719051849 0.540896942
17.28923028 -9.773089424 0.738309336
18.46766165 -9.572394686 0.573760451
27.21858638 -12.87266982 0.543954464
11.07809229 -4.755215597 0.104575885
17.34632475 -9.813753539 0.013565919
17.68100593 -9.169343453 -0.178681824
15.78555656 -7.472987919 -0.318880615
11.15394342 -4.795845507 -0.338712407
11.28037328 -6.388156095 -0.466291984
11.07816472 -5.751500056 -0.565285531
16.79834754 -9.562176462 5.908067615
18.50655699 -9.625271485 6.129930721
18.45044427 -9.596086827 5.26160794
17.2911946 -9.828342556 4.459258479
18.4383097 -9.595091434 4.442746451
17.31865602 -9.843952437 3.697141687
17.46968017 -9.094128186 3.456457968
47.95899627 -20.6672773 8.14516362
17.07663074 -9.705201901 2.901506881
22.73334135 -11.84379661 3.533699537
17.06138239 -9.696534733 2.170704405
22.94659342 -11.96406432 2.604436373
27.37129018 -13.02200832 2.765990214
10.84799042 -4.68782021 0.966388607
17.35999063 -9.876267041 1.473364696
22.72415028 -11.85212142 1.644794131
27.33758518 -13.01767741 1.655740051
11.00265881 -4.761496838 0.541890313
17.27740275 -9.836468311 0.739089501
18.2290949 -9.519802492 0.567253292
27.30532205 -13.01634769 0.54648331
11.01297923 -4.767331919 0.104098802
17.30310256 -9.859498792 0.013555709
17.63949706 -9.216598007 -0.178547267
15.75172698 -7.516215348 -0.318661539
11.2382246 -4.872990754 -0.34172417
11.23728368 -6.409365094 -0.465321442
11.03922217 -5.774347717 -0.564199772
17.41762445 -9.971029408 4.499731464
18.29013015 -9.589404416 4.414110471
17.3139726 -9.911692775 3.702616016
17.43035838 -9.141734421 3.454210873
16.94632497 -9.700047622 2.88440917
18.4410111 -9.679591446 2.871096873
16.96254513 -9.70933245 2.161908907
18.42101648 -9.676479645 2.094143366
27.36353788 -13.12142255 2.769261794
10.83629785 -4.722273422 0.966633104
17.35902991 -9.946338333 1.475866065
18.40845294 -9.673160019 1.334561968
27.34612993 -13.12481728 1.658688574
10.98250589 -4.792832565 0.54161941
17.29135617 -9.914779571 0.740984094
18.14583908 -9.547290984 0.565571368
27.19766775 -13.0675827 0.545128556
11.07070072 -4.832701498 0.104784062
17.27363931 -9.913035306 0.01355639
15.73850471 -7.569272429 -0.318862347
10.90357892 -4.767679597 -0.331991714
11.25656179 -6.466210735 -0.466939022
10.9330783 -5.761614921 -0.559675661
17.35989908 -10.00882325 4.492731013
17.29625938 -9.972131513 3.705353062
17.40919768 -9.198848481 3.455593702
16.84106392 -9.7085144 2.871549348
16.83795608 -9.706722349 2.149815362
18.19073648 -9.626837366 2.071312404
27.35543207 -13.22091177 2.772533373
10.82449691 -4.756699537 0.966877603
17.36211971 -10.01898811 1.478735194
18.37163411 -9.72585535 1.334049607
27.36595792 -13.2377847 1.662346868
11.00523814 -4.84300106 0.543470671
17.32922134 -10.00726122 0.743918908
18.03609144 -9.560314799 0.563062251
27.32122733 -13.23027233 0.54841605
11.07504158 -4.875103351 0.104966221
17.29595799 -9.996507409 0.013597911
15.69721421 -7.608799394 -0.318497238
10.77914247 -4.752714861 -0.328645301
11.17698419 -6.466184712 -0.464458754
10.8694686 -5.770771034 -0.557323125
17.32236036 -10.05811529 4.490980546
17.27918823 -10.03304778 3.708272735
48.10505767 -23.37860077 8.860154912
16.74532364 -9.721890444 2.860296945
17.77188358 -9.467912786 2.775912546
16.61555176 -9.646548212 2.125188153
17.79587453 -9.487871744 2.029655909
27.34965831 -13.32178157 2.776077465
10.79891761 -4.785041296 0.965899609
17.33043786 -10.07170584 1.478661642
17.87942369 -9.535622831 1.30042615
27.36560552 -13.34137049 1.664803891
11.04328959 -4.90024257 0.546089639
17.33039988 -10.07896779 0.74529345
17.92908018 -9.574167067 0.560635865
27.29937764 -13.32323944 0.548795374
10.67707718 -4.73908094 0.101331746
17.33521323 -10.09027132 0.013653047
15.61809845 -7.629712205 -0.317365435
14.01258886 -6.229816126 -0.427810562
11.15968371 -6.501954129 -0.464566579
10.75569592 -5.752735698 -0.552391913
9.551281546 -5.588945118 2.919713917
17.33774986 -10.13830325 4.503013056
17.29246039 -10.11182039 3.717761318
48.06096836 -21.41429921 8.20649823
16.6291645 -9.722787405 2.845537404
17.7235508 -9.512085509 2.772907998
22.86317641 -11.21297396 3.263018626
48.09470215 -21.45951853 6.244508508
16.495785 -9.644802591 2.113644164
17.73425051 -9.525005603 2.025950885
27.35067597 -13.42625211 2.780348734
10.77326712 -4.81327062 0.964921557
17.32613912 -10.14044315 1.480942235
17.68217834 -9.500218101 1.288193609
27.35143183 -13.43847383 1.666441946
24.31147253 -10.87713187 1.203844478
17.31578107 -10.14168573 0.745999289
17.80102639 -9.576087625 0.557547689
27.33373879 -13.44399725 0.550312729
27.61366874 -12.35802965 0.262428565
17.32401651 -10.15503851 0.013668702
15.56232418 -7.6616935 -0.316708235
10.52447511 -4.717769349 -0.321757269
11.13709823 -6.534643892 -0.464458754
10.69050657 -5.760118832 -0.549948898
9.46078287 -5.57502353 2.897264423
9.61975309 -5.19224457 2.765704448
17.31749412 -10.19788395 4.505857387
17.37996776 -10.23467253 3.743308106
16.52253568 -9.728584103 2.832385282
17.66116972 -9.548512193 2.767718815
22.84022854 -11.28877733 3.264670868
16.41472719 -9.665106629 2.107047599
17.58680657 -9.51544919 2.012432551
27.35041507 -13.53041237 2.784528927
27.44181557 -12.36156439 2.461246812
17.31298959 -10.20418582 1.482487188
17.5616726 -9.505020933 1.281533027
27.34586727 -13.54004575 1.668626098
10.94380776 -4.936691487 0.542657902
17.28114204 -10.19273141 0.745850694
17.71443769 -9.599697317 0.555755497
27.25473984 -13.50914312 0.549554022
27.66312609 -12.48217121 0.263261301
17.31172619 -10.21932387 0.013683677
15.51187554 -7.696071049 -0.316160587
13.96954536 -6.313619953 -0.427671147
11.11441668 -6.567255693 -0.464350899
10.64907829 -5.780022945 -0.54872736
17.47492587 -9.501406825 5.845171675
9.54424892 -5.663729432 2.928132478
9.622515722 -5.231920923 2.771100575
18.08094049 -10.72230243 4.713035507
17.40556058 -9.468807372 4.235188297
17.37808651 -10.30549863 3.749694627
16.36752435 -9.705059828 2.810903291
17.38732976 -9.469511571 2.72934463
22.77973959 -11.34597321 3.260984917
48.03989754 -21.78949555 6.254634621
16.35336586 -9.696664736 2.102979939
17.4789032 -9.52650521 2.003420328
27.35066469 -13.63514164 2.788800196
27.35294285 -12.42261652 2.456682527
17.25244366 -10.2399465 1.479985819
17.46233394 -9.520638157 1.276409412
27.36584719 -13.6546388 1.672393589
10.96862227 -4.988440606 0.544644704
17.24549333 -10.24314933 0.745664966
17.50591154 -9.556291069 0.550130666
27.31155683 -13.64184122 0.551541002
27.79855083 -12.64606918 0.264918072
17.27599387 -10.2698322 0.013680274
17.32293468 -9.461115772 -0.177076045
15.41486025 -7.706960708 -0.314663676
10.48532326 -4.777698144 -0.321450514
11.07875686 -6.592125321 -0.46370389
10.62340691 -5.808353447 -0.548320201
17.39688839 -9.528242845 5.828819024
9.540938452 -5.701415892 2.932469313
9.595365653 -5.255363534 2.767911965
17.37385486 -9.520752886 4.234561254
17.9516421 -10.72020513 3.88052992
17.36105266 -9.516888814 3.47460806
16.20771915 -9.677633835 2.788544873
17.37296102 -9.530910599 2.731666113
22.76343943 -11.42515097 3.263654012
47.91592617 -21.91075897 6.247216941
16.23478719 -9.693795917 2.09154586
17.40162356 -9.553749561 1.997912859
27.32561077 -13.7274814 2.790526823
27.34732528 -12.5214128 2.459616744
17.22608245 -10.29589813 1.480427251
17.39718002 -9.554471235 1.273783589
27.34077679 -13.74705385 1.673430949
10.92874746 -5.010826677 0.54342555
17.2157033 -10.29703554 0.745739234
17.29782149 -9.511696271 0.544505835
27.20080687 -13.69095517 0.550150128
27.70599529 -12.70670007 0.264406277
17.17748046 -10.28272358 0.013627181
17.23074483 -9.479512978 -0.17643014
15.29827968 -7.707431623 -0.312765149
10.46789074 -4.808592295 -0.321366859
11.04647901 -6.61889206 -0.463200619
10.56003516 -5.815858286 -0.545967665
15.80573234 -9.518161849 5.63943902
17.34321276 -9.568130546 5.820643172
9.537486107 -5.739135473 2.936806147
9.57749985 -5.283840295 2.767421302
17.35911812 -9.582044124 4.238114644
17.87485213 -10.74888215 3.871041099
17.36884905 -9.590579776 3.48204076
16.16184299 -9.717626657 2.785768249
17.32543043 -9.5741037 2.728798413
22.7574898 -11.50970712 3.267848272
48.11001029 -22.17822314 6.281362774
16.08230852 -9.669805832 2.075714151
17.3461099 -9.592646588 1.994908784
27.38998796 -13.86522432 2.801431851
27.36669716 -12.63198659 2.464832866
17.37913694 -9.614079945 1.274616147
27.36082217 -13.86245974 1.677253156
10.87161053 -5.025051794 0.541348448
17.36824564 -9.61993514 0.547649086
27.23447117 -13.8127836 0.551685484
23.18764643 -10.72068924 0.221599219
17.11759018 -10.31833888 0.013604718
17.0144088 -9.428608314 -0.174510378
15.26475492 -7.749351293 -0.312564341
13.77115539 -6.377236801 -0.423376572
11.00986316 -6.642942025 -0.462517669
10.4993378 -5.824482939 -0.543750849
15.7282107 -9.537352675 5.622193249
9.522314275 -5.769872003 2.937571469
9.562090962 -5.313670018 2.767666633
9.328371389 -5.648572752 2.445011773
17.30998165 -9.624326439 4.233307173
17.33417953 -9.64094836 3.481003639
48.04025751 -24.4502795 8.929611968
16.08202675 -9.736935958 2.77714632
17.315884 -9.638293572 2.73193934
22.73179273 -11.5844258 3.269246359
47.79949515 -22.21314206 6.249689343
16.01515628 -9.696448959 2.070876638
17.37570717 -9.678742596 2.00171802
27.38369342 -13.96774296 2.805157856
27.36215217 -12.73186551 2.467930161
17.36176457 -9.674153778 1.275512839
27.32616796 -13.95042239 1.677744536
27.34183293 -12.73983092 1.363417913
17.31944647 -9.662459863 0.54704249
27.27120374 -13.93676608 0.55329314
22.85645553 -10.65279843 0.218745409
16.8413658 -10.22240697 0.013410044
16.9670651 -9.470528309 -0.174321983
15.24802944 -7.799788868 -0.312710372
10.17279567 -4.748841347 -0.313196045
10.98772338 -6.675650656 -0.462445756
10.46833813 -5.849357461 -0.54307225
15.70295729 -9.588053596 5.623654755
9.490536322 -5.790497435 2.933234637
9.546589807 -5.343454637 2.767911965
9.444351439 -5.289043565 2.313655905
17.82535214 -10.86859433 3.874690573
17.33459501 -9.710932782 3.487053748
17.62377896 -9.037874537 3.281006143
15.87385288 -9.677573567 2.746311883
17.2585807 -9.675869936 2.727569128
22.70055607 -11.6563766 3.269881981
15.91659122 -9.703629263 2.061971229
17.3294428 -9.722754584 1.999815438
27.38322708 -14.07353907 2.809519962
27.36086048 -12.83352745 2.471353137
17.35811108 -9.742025542 1.277434136
27.33562626 -14.0611394 1.680966048
22.71827514 -10.67045242 1.134488275
17.2879768 -9.714570641 0.546987355
18.52585216 -9.539305825 0.376454623
22.64717982 -10.63995525 0.217053948
16.88757039 -10.32148408 0.013471986
16.86994274 -9.484314652 -0.173622254
15.13871011 -7.802558631 -0.310957877
13.57619677 -6.388409898 -0.418580067
10.96889596 -6.710372268 -0.462517669
10.34848681 -5.824121376 -0.53777906
15.60910819 -9.596616169 5.600562486
18.55313167 -9.554082653 5.908764596
9.514950813 -5.364148074 2.763496932
9.273580169 -5.6934512 2.439761084
9.451929532 -5.331445956 2.319508603
17.64361578 -10.83217855 3.842392484
17.33474467 -9.781009444 3.493103621
17.57931664 -9.083295884 3.27790098
15.80699183 -9.703456087 2.739881972
17.20121185 -9.713185682 2.723199154
22.67085606 -11.72915679 3.270771523
15.8520163 -9.731094957 2.057463686
17.34371126 -9.800840139 2.004922365
27.31958107 -14.14695094 2.807429746
27.33127073 -12.92209508 2.472249829
17.36462881 -9.815859409 1.280123974
27.32782049 -14.1633169 1.683150082
27.3245446 -12.93642549 1.366488387
17.30072069 -9.791689371 0.548338414
18.42727421 -9.560183088 0.375045719
16.73148469 -10.29672541 0.013372607
16.71546383 -9.465075932 -0.172330458
15.10760191 -7.845280835 -0.310811845
13.5502111 -6.427032146 -0.418384833
10.95080981 -6.745565255 -0.462625494
10.23844907 -5.803624311 -0.532983509
18.52117137 -9.60962898 5.907947298
9.493390492 -5.390442153 2.762025409
18.47121344 -9.601309263 5.052839392
17.71700627 -10.95221939 4.669937531
9.478892259 -5.385054698 2.330168773
18.43757533 -9.592409929 4.231495965
9.27892295 -5.736003411 2.024568835
17.35603468 -9.863344363 3.503475068
17.51198836 -9.116685355 3.27054672
15.74264682 -9.730580069 2.733890276
17.09038697 -9.719876768 2.710362221
22.6558744 -11.80965856 3.273822088
15.83815135 -9.789612063 2.059552472
17.33690856 -9.867291561 2.007626032
22.60363834 -11.79296764 2.326514438
27.33288457 -13.02560834 2.475998961
16.5182599 -10.21995243 1.432901726
17.35177673 -9.878962271 1.281404878
27.34531122 -14.27898095 1.686917572
27.30185949 -13.02836888 1.367346218
16.50091243 -10.21638938 0.72148062
17.29057192 -9.856106798 0.548972607
18.25253899 -9.540712949 0.372083338
16.66241534 -10.32483251 0.013342657
16.62293682 -9.480150168 -0.171675581
15.0896633 -7.894837726 -0.310939637
13.52952722 -6.468142179 -0.418356967
10.8994893 -6.760167248 -0.461331447
10.20064195 -5.82361666 -0.53194299
16.70385015 -9.552500572 5.654580344
9.305972133 -5.32184489 2.712234791
17.68829134 -11.0096171 4.671249788
9.447897578 -5.405853917 2.326615384
18.33342158 -9.609806729 4.214338413
9.261281017 -5.764443713 2.024568834
17.47869414 -9.16761926 3.269566105
15.54978012 -9.677426387 2.70554016
17.00976998 -9.743213972 2.702305103
18.43336682 -9.680658757 2.66793992
15.82070083 -9.846034685 2.061201614
17.31259762 -9.923897942 2.008326983
18.47541581 -9.711382033 1.904668406
27.38173708 -13.15212483 2.484067761
16.43688462 -10.23947046 1.428561196
17.3239837 -9.933639167 1.281597043
18.44157289 -9.701810803 1.139481573
27.32117738 -13.14064711 1.370326449
16.4491379 -10.25427733 0.720589053
17.31573511 -9.940960258 0.550737262
18.17540977 -9.57150877 0.371107938
16.45927966 -10.26897886 0.01320516
16.42729024 -9.435479312 -0.169953171
15.01053344 -7.912189686 -0.309807805
13.47089791 -6.490961352 -0.417157841
10.86598367 -6.785634717 -0.460792234
10.12816713 -5.823513407 -0.529092815
9.223780373 -5.788513561 3.328476342
16.68194659 -9.60801153 5.657118067
9.260664398 -5.807381097 2.883998815
9.293801208 -5.352789485 2.713461215
17.6221859 -11.04362382 4.662717742
9.396528846 -5.414795356 2.318045428
9.500155765 -5.953640384 2.080771248
17.2627617 -9.950961293 3.496906635
17.46880241 -9.230879098 3.272998139
15.4688817 -9.693044804 2.696625928
16.72837906 -9.650313287 2.662292266
17.9590752 -9.501981764 2.603500623
15.74325298 -9.864970068 2.05504493
17.30964257 -9.992883711 2.011531328
18.13134751 -9.601636985 1.872225717
27.34933208 -13.23997711 2.484801375
16.41215306 -10.29408922 1.429149733
17.31243869 -9.997720946 1.283005978
18.41172192 -9.758342642 1.139481573
27.29062129 -13.22919853 1.370823075
16.43283553 -10.31425694 0.721257698
17.30852038 -10.00754679 0.551481724
17.95518107 -9.526009397 0.367206277
27.14241472 -13.16086565 0.261665238
16.3785836 -10.28857495 0.013165681
16.35931517 -9.463301758 -0.169549484
14.9941356 -7.962424044 -0.309972105
13.47250014 -6.54273945 -0.417827112
10.8290403 -6.808832237 -0.460109284
10.06184187 -5.826525082 -0.52655932
9.210829378 -5.819849395 3.33023015
16.49470568 -9.567681751 5.60354923
9.249344752 -5.839894805 2.886039679
9.272303579 -5.378358902 2.711989694
17.56759057 -11.08461885 4.657248419
9.368877284 -5.437217192 2.315328173
17.79398868 -9.466684768 4.103613487
9.700536622 -6.120745454 2.128762288
17.31988679 -10.05481031 3.514710781
15.44827479 -9.746263528 2.698233347
16.67984991 -9.6906416 2.659287716
17.76965687 -9.471654228 2.58024146
15.75242284 -9.938150231 2.060212176
17.33653493 -10.07944831 2.018240427
17.71871509 -9.452842487 1.832603768
27.37038943 -13.35397689 2.490425192
17.33862036 -10.08390101 1.287232901
17.87170603 -9.542477139 1.107867269
27.30286355 -13.33873522 1.373487165
17.32956614 -10.09078137 0.553136051
17.94174453 -9.589533785 0.367531421
27.93295465 -13.6501875 0.269688858
16.17368601 -10.22919802 0.013026142
16.29996444 -9.495829388 -0.169235501
14.96522872 -8.00603007 -0.309880821
13.42542905 -6.570858467 -0.416990501
10.80134494 -6.837746832 -0.459821692
10.01630412 -5.841262887 -0.525111583
9.268778538 -5.89633098 3.357706935
16.39734213 -9.578558294 5.580430255
9.239544511 -5.873431103 2.888590757
9.257434212 -5.407758492 2.712480124
17.57138798 -11.16253134 4.667312067
9.348774296 -5.46396082 2.314492038
9.162190133 -5.820441651 2.014532607
17.31446729 -10.12281238 3.519896623
15.34398129 -9.746405296 2.685227375
16.62951954 -9.729763256 2.656010413
17.74051429 -9.526126165 2.58024146
15.77052028 -10.01734025 2.066588919
17.33558122 -10.15018453 2.02174518
17.67120957 -9.497257354 1.830695346
27.40173819 -13.47350765 2.497027003
17.348936 -10.16125649 1.29030707
17.70604478 -9.523945644 1.099404006
27.33530399 -13.4586199 1.377189805
17.30456401 -10.14744062 0.553329111
17.73793296 -9.550679995 0.363954933
27.67833745 -13.63111477 0.267633064
16.14475779 -10.28038131 0.013028184
16.11550622 -9.454711177 -0.167620737
14.90715113 -8.033880161 -0.309187142
13.38548412 -6.602288304 -0.416376991
10.76009048 -6.85796181 -0.458959004
9.961295691 -5.850211173 -0.523166265
9.252255456 -5.925770919 3.358291536
9.241841824 -5.914780161 2.894968454
9.255004806 -5.44449109 2.716649826
9.814314279 -5.294245183 2.706625339
9.270444961 -5.456406245 2.299233487
9.13269396 -5.841106743 2.011977951
17.1899656 -10.12091558 3.500882265
48.18664627 -23.81663168 8.383566941
15.21733102 -9.731608509 2.668275813
16.49461089 -9.718879715 2.639213109
15.73050294 -10.05978595 2.065379423
17.32578624 -10.21595568 2.024248575
17.53427351 -9.493108929 1.819517688
27.37724103 -13.56591939 2.498575531
17.32111924 -10.21646265 1.290563251
17.63987018 -9.558242647 1.097110658
27.29120189 -13.54108779 1.377054265
17.28798213 -10.20912263 0.553797841
17.67427079 -9.586463323 0.363250466
27.63459609 -13.71507763 0.267615719
15.97339378 -10.24027393 0.012915191
14.87803979 -8.077191883 -0.309095857
13.37501187 -6.648217477 -0.416683746
10.70872063 -6.871511837 -0.457664957
9.929543826 -5.872607936 -0.522442368
9.238854883 -5.957238149 3.360045346
9.241533896 -5.95462744 2.900580828
9.239925138 -5.473847709 2.717140252
9.799733806 -5.325258319 2.70709717
14.82721722 -9.54744447 3.953891914
9.372276384 -5.555127454 2.328705598
9.543857092 -5.190744109 2.211909167
9.161023091 -5.898906277 2.022196571
17.29184832 -10.25247095 3.528020974
17.36807531 -9.452098985 3.275612877
15.11254396 -9.73005138 2.655123691
16.39059678 -9.72545961 2.627332233
17.3943071 -9.478183075 2.538298863
15.7388438 -10.13328786 2.070546905
17.20966733 -10.21877168 2.014335131
17.44648917 -9.514911603 1.813428955
27.36402521 -13.66409576 2.501183592
17.26652643 -10.25579464 1.288834119
17.40449592 -9.499894667 1.084279327
27.32279799 -13.66138666 1.380756905
17.16550738 -10.20795441 0.550875128
17.46929441 -9.544763199 0.359637828
27.55124989 -13.77921901 0.267216725
15.93265954 -10.28326668 0.012907703
15.86727137 -9.440421441 -0.165638182
14.81371336 -8.101211446 -0.308274386
13.29377728 -6.658777884 -0.414787454
10.6699605 -6.892945224 -0.456910064
9.904613856 -5.898954577 -0.522080448
9.266256496 -6.015234943 3.376706751
17.39864679 -9.506865244 5.613721132
9.237822505 -5.992424094 2.905172768
9.436223786 -5.62931845 2.779930407
9.512276846 -5.206915745 2.63208997
14.81259408 -9.602443346 3.957829873
9.196484862 -5.489128359 2.289200594
9.527886443 -5.219999934 2.211909165
8.997679155 -5.83285431 1.990080873
17.3346702 -9.502968165 3.274795817
48.12349123 -24.15395625 8.398206795
14.83109182 -9.613332155 2.61084483
16.23482416 -9.700498392 2.607120776
17.36775458 -9.532935481 2.538680094
15.67431939 -10.15990122 2.066149037
17.06038847 -10.20105675 2.00051639
17.3814283 -9.548733144 1.809703067
27.3620411 -13.76814263 2.504851186
15.70181745 -10.18745839 1.380741344
17.22727372 -10.30410907 1.288257624
17.35426923 -9.54170034 1.08296886
27.33517692 -13.77256712 1.383511354
15.6993955 -10.19289594 0.695847463
17.22415757 -10.31449393 0.553770245
17.33131298 -9.538534715 0.357397975
27.49991598 -13.85918056 0.267129971
15.71655913 -10.21223031 0.012757954
15.75502806 -9.439206171 -0.164767999
14.77127498 -8.136972379 -0.307909278
13.25097608 -6.688270786 -0.414090288
10.64457397 -6.922923344 -0.456730356
9.871905022 -5.920578869 -0.521311369
9.231747659 -6.033171949 3.370860491
17.38035651 -9.566229474 5.617262602
9.219395149 -6.020737211 2.90517277
9.42971237 -5.664731828 2.783119017
9.506469725 -5.241705314 2.634920476
9.229711897 -6.023568562 2.471045655
9.119252953 -5.481045179 2.274150899
9.49638451 -5.24068433 2.208318105
9.192173109 -5.999069999 2.037159485
9.937897145 -5.974972547 2.035050984
17.32788718 -9.568504571 3.279044912
47.95746657 -24.25510696 8.382179346
14.78993053 -9.651219558 2.608798961
16.10227852 -9.688462091 2.590596699
17.34797437 -9.591453668 2.540078181
15.6505667 -10.21283008 2.067138475
17.01281636 -10.24359759 1.998613809
17.34508189 -9.598155584 1.808976011
27.33656163 -13.86058773 2.506399715
15.6153817 -10.19958788 1.37588583
17.32491588 -9.594897386 1.08296886
27.31595424 -13.86812322 1.384685328
15.66805033 -10.24101354 0.695847464
17.36405383 -9.626079802 0.358680459
27.48847363 -13.95933013 0.267433567
15.67427563 -10.25328386 0.012749106
15.59927648 -9.411048417 -0.163440321
14.6675576 -8.138592447 -0.306266306
13.24910498 -6.738408988 -0.414675904
10.62328466 -6.955548201 -0.456730356
9.868232012 -5.959617028 -0.522080448
9.317854002 -6.130322365 3.409152423
17.28192254 -9.581251356 5.594923258
9.200880246 -6.048993375 2.90517277
9.400675389 -5.686610407 2.779685074
9.509882978 -5.281698313 2.640345452
8.950225189 -5.880400667 2.401038328
9.094028948 -5.503933761 2.272060686
9.522228229 -5.293122452 2.21809398
8.746428509 -5.746504215 1.942272109
9.969230619 -6.03552995 2.045249578
17.32000484 -9.633609638 3.283130692
14.73544663 -9.680253812 2.60441492
16.00724018 -9.698291401 2.580081485
17.30806904 -9.638840299 2.538553018
15.55436454 -10.21823048 2.058563035
16.89452669 -10.24312844 1.988399957
17.3329505 -9.661021685 1.810793594
27.31964741 -13.95753957 2.508763396
15.56318405 -10.23374896 1.374046669
17.32155712 -9.662597631 1.084606915
27.3382024 -13.98507469 1.387981583
15.54055595 -10.2258642 0.691575241
17.31523579 -9.668582585 0.358283075
27.49269759 -14.06774011 0.267893298
15.59179976 -10.2677736 0.012707585
15.49085028 -9.410578465 -0.16260602
14.62768231 -8.175260735 -0.305955974
13.14118846 -6.734348134 -0.411943001
10.57602893 -6.971057762 -0.455616017
9.829416359 -5.977407095 -0.52099469
9.261528312 -6.134061116 3.395414263
17.21464249 -9.613115791 5.582664247
9.266941185 -6.133225725 2.931959096
9.396432246 -5.723493382 2.783609444
8.961441497 -5.927210698 2.408914012
9.168956233 -5.587787166 2.295053056
9.515349726 -5.327577337 2.220288387
9.296240948 -6.148651868 2.068545382
9.339262712 -5.693364766 1.919582126
17.28176063 -9.681879215 3.281496333
14.67927399 -9.707953688 2.599738578
15.90552922 -9.703501839 2.568473601
17.2671693 -9.685586738 2.536900776
15.36293727 -10.16008547 2.037344257
16.63627888 -10.15648505 1.961663579
17.33101703 -9.72975357 1.813701586
27.36265571 -14.08553798 2.516669356
15.52256707 -10.2753924 1.373237357
17.33535619 -9.740149067 1.087337045
27.34755814 -14.09588513 1.390645554
15.44995945 -10.23431144 0.688937676
17.36740737 -9.767731438 0.359981032
18.50995191 -9.543128415 0.180648429
15.5060492 -10.27964531 0.01266334
15.41243075 -9.427795138 -0.162085716
14.57639373 -8.205385595 -0.305408326
13.06895111 -6.748033424 -0.410325569
10.51878655 -6.979712143 -0.45407035
9.815291582 -6.010143406 -0.521220889
9.323825568 -6.216558383 3.425229223
9.288315038 -6.188433751 2.944714727
9.397009192 -5.763445037 2.78900557
9.495922024 -5.350445356 2.645534632
8.944026793 -5.955216935 2.409132878
9.138434068 -5.607707438 2.291708758
9.417020787 -5.310536868 2.201135983
9.089920512 -6.052358113 2.026758472
9.317554241 -5.719413958 1.918717857
17.58803929 -9.099620471 3.08860954
14.65683302 -9.757877807 2.601053696
15.87146358 -9.749661864 2.567790771
17.23564541 -9.737540919 2.536646385
15.26136922 -10.16035093 2.027998965
16.57452733 -10.18871886 1.958058691
17.32795754 -9.798073206 1.816518739
27.34762463 -14.18410282 2.519277417
17.34797394 -9.817384575 1.09001246
27.31482185 -14.18524428 1.391187479
17.35040827 -9.828360175 0.360251965
18.44154273 -9.579588776 0.180266766
15.33386735 -10.23335607 0.012548305
15.3195776 -9.435704685 -0.161412898
14.54245372 -8.245135628 -0.305225757
13.05882782 -6.793632635 -0.41066022
10.46740663 -6.991967412 -0.452776273
9.817214533 -6.052810586 -0.522306648
9.399996095 -6.309088574 3.460305842
18.4189302 -9.541642389 5.660041796
9.286951569 -6.228749478 2.950327099
9.347939017 -5.772890797 2.779685074
9.431287529 -5.352214239 2.63208997
18.47216649 -9.595407173 4.840132302
9.304238699 -6.236341976 2.511300009
9.169438425 -5.665530787 2.303832103
9.399832616 -5.338919158 2.200936429
18.43522186 -9.592156011 4.027076027
9.244454423 -6.196270421 2.065443317
9.292423262 -5.743312391 1.917162176
17.36612448 -9.869628876 3.308952615
17.59245837 -9.170436387 3.094311323
14.51095628 -9.725142028 2.580448845
15.82294238 -9.78684379 2.564786457
17.15051669 -9.75897727 2.52851202
18.39659454 -9.601862172 2.460525277
15.19957628 -10.18665057 2.023931068
16.50342716 -10.21490901 1.953352308
17.33848913 -9.874351945 1.82078989
27.32164663 -14.27716942 2.520907485
15.28530314 -10.25377266 1.357787952
16.49701073 -10.21412341 1.245219732
17.35854442 -9.89380061 1.092578797
27.31631609 -14.292598 1.393490245
16.4904167 -10.22198885 0.535158694
17.32625403 -9.88501279 0.360378416
18.1879179 -9.518811245 0.178072197
15.25757577 -10.25023805 0.012511549
15.25826463 -9.462633148 -0.161072005
14.51361709 -8.287729264 -0.305152742
13.03792354 -6.833664946 -0.410660219
10.45419964 -7.029624113 -0.453135749
9.886866728 -6.13769719 -0.527011719
9.294222896 -6.279540623 3.428444774
9.236545576 -6.236111276 2.940377658
9.369701307 -5.826114741 2.791458184
17.34473784 -9.913535043 4.849046345
9.07151905 -6.120775031 2.453543822
9.186057777 -5.714814713 2.312401823
9.375753444 -5.363352966 2.199140897
18.37701273 -9.633627571 4.020797989
9.251481824 -6.242200611 2.071282428
9.275596155 -5.772314667 1.917335031
17.27839585 -9.890025553 3.298002765
17.51438013 -9.198179301 3.085527267
14.40888487 -9.72092761 2.567588788
15.5565507 -9.688186977 2.526412272
16.93891291 -9.707485874 2.501694222
18.38726415 -9.668886908 2.463233472
9.130284812 -6.159730241 1.218272608
16.43401236 -10.24181134 1.948846197
17.32798198 -9.938895463 1.822879986
18.4479564 -9.712312022 1.704893076
16.46220937 -10.26257574 1.244963551
17.34456282 -9.956453925 1.093616157
18.44048843 -9.720715013 0.942223599
16.42929835 -10.2540079 0.534193636
17.31058299 -9.946589925 0.360685499
18.14889965 -9.569435926 0.17797677
15.19623611 -10.27683208 0.012487045
15.11296085 -9.436842281 -0.159843001
14.4846558 -8.330223464 -0.305079726
13.00098638 -6.86523072 -0.410158259
10.43754916 -7.065025202 -0.453351428
9.95778374 -6.224126629 -0.53180727
9.276494986 -6.309101202 3.429029375
9.114207928 -6.194307628 2.90746874
9.366573858 -5.864093019 2.795873218
9.46396269 -5.44779792 2.650488017
9.051890488 -6.148029211 2.45332519
9.165166479 -5.74089408 2.311565689
17.29377695 -9.96336138 4.063512912
8.859775327 -6.017544615 1.987708609
9.661809209 -6.05386017 2.000998134
17.35652001 -10.00556244 3.318758294
17.46511745 -9.240780144 3.08182868
14.28324265 -9.70006186 2.550491076
15.51584438 -9.729026762 2.524636771
16.83602921 -9.717262076 2.49089076
17.98983724 -9.530468915 2.413897994
9.100654958 -6.180452932 1.216843407
16.23648215 -10.18800114 1.929119325
17.35777069 -10.02687909 1.829241351
18.12310699 -9.612416326 1.677589379
16.40190795 -10.2949947 1.242785956
17.32171518 -10.01411736 1.094107656
18.40440277 -9.773964284 0.941907515
16.41807553 -10.31712892 0.534855367
17.28517807 -10.00265647 0.360793861
18.08854705 -9.608652457 0.177673174
15.14644948 -10.31102482 0.01247207
15.02552531 -9.446440157 -0.159224007
14.4451872 -8.366605307 -0.304787663
12.99839514 -6.914943667 -0.410743875
10.42408321 -7.102641038 -0.453710874
9.993598147 -6.289232662 -0.534747925
9.252360452 -6.334289948 3.427275332
8.740037489 -5.979290795 2.793945732
9.330496217 -5.881428785 2.790477092
17.2961938 -10.02708445 4.852584476
9.026541968 -6.171365048 2.45157496
9.138412205 -5.763247228 2.309266618
17.27584089 -10.0237477 4.06650554
8.626996943 -5.898199836 1.939535061
9.638192394 -6.080320467 1.999961013
17.27113792 -10.02706296 3.308298871
14.21258187 -9.715921942 2.543184498
15.45409165 -9.756487236 2.519447589
16.74010665 -9.73048746 2.481104153
17.76252036 -9.479945071 2.387287619
9.070983357 -6.201052425 1.215414206
16.19000752 -10.22820109 1.92731688
17.35791662 -10.09811308 1.832512931
17.77267746 -9.496529131 1.647840463
17.30299245 -10.0742458 1.094872027
17.82908992 -9.538675286 0.913957347
15.09821277 -10.33798654 0.680244696
17.32005995 -10.09390096 0.362166675
17.86237271 -9.558888022 0.175738839
15.01905591 -10.29187364 0.012393111
14.89001339 -9.425106357 -0.15809368
14.39526946 -8.396777541 -0.304276494
12.97800101 -6.955261681 -0.41077177
10.40389216 -7.135719132 -0.453782757
10.00294643 -6.3380421 -0.536286083
9.221072563 -6.35450605 3.422890816
8.697761146 -5.989624632 2.786292494
9.265752281 -5.880416592 2.776496465
17.27625992 -10.08647134 4.855650542
8.995508782 -6.19073151 2.448293367
17.59001546 -11.16892621 4.453615477
17.29154021 -10.10389199 4.077478042
8.598331758 -5.917393248 1.937162797
9.417458949 -5.981538795 1.957956549
17.33482968 -10.13527606 3.326439427
9.156049015 -6.300508879 1.641824822
15.25019017 -9.693321741 2.4910424
16.50302051 -9.660535035 2.450346012
17.67912371 -9.505239936 2.37998748
14.82860253 -10.20393678 1.99105839
16.1820587 -10.29277484 1.930120682
17.33974176 -10.15886976 1.83387597
17.71713099 -9.536838239 1.645395362
14.76326674 -10.16847225 1.322401271
17.30904168 -10.14900049 1.097219972
17.69157586 -9.535032536 0.908403387
14.81711444 -10.21242534 0.668988359
17.30625796 -10.15711195 0.362527939
17.76958814 -9.579479668 0.175114302
14.82442279 -10.22547918 0.012258337
14.80284155 -9.433662421 -0.157474685
14.34012871 -8.423684143 -0.303655831
12.94604577 -6.98934666 -0.410437119
10.38688564 -7.171010552 -0.453998437
10.0053522 -6.382669484 -0.53746238
9.19917567 -6.381130649 3.42201391
8.624512489 -5.978272694 2.768689815
9.183947313 -5.86810123 2.75736528
9.948722432 -5.849404022 2.801209806
8.981286193 -6.221633926 2.449605862
17.3060658 -10.18373084 4.088251226
8.585795299 -5.947663903 1.938440126
9.448020814 -6.041709629 1.968155141
9.255422863 -5.449603202 1.779254483
13.97785327 -9.681838088 2.511765459
9.33865972 -5.976140506 1.528411055
16.47586791 -9.71263169 2.45072748
17.45341147 -9.453023688 2.353494648
14.69672796 -10.17977002 1.977535408
17.29820119 -10.20594669 1.832785562
17.55636687 -9.519884645 1.633169853
14.72954251 -10.21201234 1.322180496
17.26750568 -10.19596392 1.096564679
17.64116974 -9.57782581 0.907319715
14.77093397 -10.24758194 0.668319654
17.30255851 -10.22643862 0.363105955
17.54063919 -9.525623401 0.173145262
14.77080302 -10.25551248 0.012239958
14.7081836 -9.436913 -0.156774957
14.32368355 -8.473238373 -0.303856639
12.91488237 -7.023778024 -0.410130364
10.3722225 -7.207975994 -0.454321971
10.0042153 -6.425211937 -0.538457659
9.10820144 -6.359502959 3.395414263
14.83966246 -9.546072557 5.185151323
9.23389773 -5.457955424 3.037065029
8.599786954 -6.000278195 2.766648952
9.499369834 -6.110763828 2.857682045
9.999297972 -5.920497698 2.820551274
17.4150728 -9.457347121 4.607988901
8.930940506 -6.227392548 2.441073814
14.82394637 -9.540718832 3.768025687
9.458451921 -5.604950041 2.238443248
17.44832069 -9.490787779 3.849008341
8.93285433 -6.228726892 2.021101753
9.414534131 -6.061070626 1.965043661
9.330308399 -5.532315029 1.796904849
13.93347729 -9.714491891 2.509134988
15.1138122 -9.737352618 2.478478694
16.42978799 -9.753512898 2.448312539
17.40950703 -9.498439558 2.351493121
8.971944731 -6.255285422 1.209807079
17.26081604 -10.25540853 1.832149343
17.42386327 -9.517324565 1.623552405
14.68751103 -10.24973486 1.321224198
17.22241179 -10.24072699 1.095691113
17.42413889 -9.529323566 0.897656789
14.72713598 -10.28426905 0.667762411
17.25220081 -10.26822388 0.36270857
17.45343228 -9.547719379 0.17257276
14.69992577 -10.27328425 0.012207286
14.59600594 -9.428278692 -0.155886847
14.27357014 -8.502815749 -0.303345499
12.87836914 -7.055202647 -0.409656298
10.35661067 -7.24434619 -0.454609533
9.987811265 -6.458043885 -0.538638619
9.621296719 -5.737357408 -0.615899557
9.180192178 -6.451752392 3.429613978
9.242448784 -5.985660167 3.235820756
9.191479119 -5.471002805 3.028619765
17.37983517 -9.4821644 5.40207337
8.654926085 -6.078314278 2.79037422
14.93652717 -9.673299547 4.502241426
10.1279911 -6.038736973 2.862064717
17.36375838 -9.498577616 4.602100438
8.902209072 -6.248036429 2.438448587
14.78393687 -9.579240201 3.76530843
9.479076733 -5.656537698 2.247421134
17.40792971 -9.538140759 3.846534989
8.556381825 -6.005316987 1.94008247
9.398374019 -6.091532667 1.965562221
9.323455706 -5.566982888 1.798866078
17.32391548 -9.50901963 3.082290974
13.83720732 -9.710595017 2.497151832
14.91598249 -9.674781619 2.45089295
16.25420411 -9.716842026 2.42657854
17.38463725 -9.55419775 2.352081779
14.5005606 -10.17611947 1.959504883
15.70273209 -10.1920928 1.884058213
17.33695035 -9.539024734 1.618173205
15.70303122 -10.19540301 1.201541211
17.23717361 -10.32121542 1.098639517
17.3641966 -9.565863997 0.896076431
15.67623028 -10.189674 0.515719891
17.18288337 -10.29848854 0.361913772
17.35311931 -9.562130382 0.171870155
14.66016044 -10.31258126 0.012200479
14.45887181 -9.402689782 -0.154729594
14.24570144 -8.545538334 -0.303308991
12.78139706 -7.053145398 -0.407258046
10.33106842 -7.273784465 -0.454465737
9.961253689 -6.484295772 -0.538276699
9.540304411 -5.728810625 -0.611837084
9.243330229 -6.026563533 3.242587313
17.41322673 -9.569823929 5.421552644
8.606234087 -6.083629663 2.780680121
10.10191838 -6.065278773 2.859941838
17.38230754 -9.57812741 4.614783352
8.957913273 -6.328241402 2.459013145
9.289735408 -6.059823744 2.370718768
9.450759213 -5.67903137 2.244827617
17.37170752 -9.587707871 3.84501316
8.554781706 -6.04345259 1.943914454
9.352420379 -6.102575797 1.959857937
9.308868956 -5.597085744 1.799356268
17.34048849 -9.587462573 3.090458716
13.79442245 -9.743869355 2.494813661
9.293214793 -6.068337592 1.530049825
16.17587905 -9.737504863 2.419333953
17.36566814 -9.613260133 2.353494647
9.154211948 -6.466196511 1.239711445
15.61225225 -10.20157773 1.876948571
17.3677526 -9.625505806 1.623796903
15.59900428 -10.19602911 1.195969368
17.33564097 -9.619576016 0.896121611
15.61729178 -10.21965748 0.514810026
17.32544895 -9.616294068 0.1718875
14.47012199 -10.24540515 0.012068427
14.37223019 -9.409212804 -0.154110614
14.20315691 -8.579381037 -0.302962122
12.72999182 -7.075812839 -0.406309885
10.29810393 -7.297933991 -0.453998437
9.927108909 -6.505517319 -0.53750762
9.474835313 -5.729120391 -0.608762795
9.256079376 -6.075425578 3.253582941
9.188215072 -5.545693645 3.038699625
17.32638976 -9.591429768 5.403652654
9.692405862 -5.859934415 2.749082204
17.34858319 -9.629047607 4.613650866
8.898695122 -6.327421571 2.448074501
9.293170945 -6.102789311 2.376362374
9.385505163 -5.679083892 2.233455768
17.32161821 -9.629509891 3.840447208
8.546616677 -6.077076678 1.946286599
9.313897024 -6.118261223 1.955709335
9.29334212 -5.626640484 1.799683141
17.32912006 -9.650712257 3.093695009
9.007532433 -6.404100485 1.632618288
9.271242114 -6.094643881 1.529503608
16.07213214 -9.742353637 2.408276337
17.29619747 -9.644245129 2.348078492
9.118939651 -6.483307982 1.23762254
15.59999968 -10.26200395 1.879251694
17.3694709 -9.696232874 1.626731121
9.063975541 -6.450185647 0.820661233
15.55097638 -10.23286698 1.194688464
17.33918343 -9.691236865 0.89783745
14.4112616 -10.26229044 0.657694888
15.58002194 -10.26367316 0.514617026
17.30197599 -9.672818784 0.171948222
14.38813122 -10.25376849 0.012026225
14.28568512 -9.415292191 -0.15349162
14.1349111 -8.597455465 -0.302067635
12.72043409 -7.121671456 -0.406700296
10.25044447 -7.311503325 -0.452884128
9.902100555 -6.53264193 -0.537236181
9.423100332 -5.737391204 -0.606566901
9.283823328 -6.13447217 3.269935357
9.148957576 -5.560364363 3.031344171
8.987747666 -6.436382496 2.916652624
9.121972287 -6.027525713 2.766195112
10.05289116 -6.120074432 2.856639739
8.802271447 -6.299607351 2.426853577
9.32906022 -6.167404519 2.390366843
