X Y Z
13.2558509 10.2795125 4.7495687
13.91751716 9.202898661 4.402148189
13.72385397 9.834918442 4.271683987
13.19931556 10.21981773 4.051800369
14.12289884 9.344730159 3.796812694
14.08907605 10.90047368 3.62679707
14.67000537 9.706735132 3.264673989
13.0082923 9.314911981 2.80789673
13.25587834 8.772044403 2.348094443
13.24921044 9.480782141 2.2459121
12.68686877 9.79969189 2.05417778
13.37900725 8.853524774 1.774581592
13.13546185 9.393148561 1.625206685
13.14176233 10.14337563 1.514901594
12.08707507 10.03434797 0.136271326
13.647141 10.50838572 -0.314481137
14.83852309 9.739570783 5.425179868
13.18113618 9.384917601 4.754911171
13.28046622 10.23351043 4.747116804
13.67575905 8.98285699 4.316942157
13.75238227 9.791643243 4.271193322
13.18593501 10.14490492 4.038119909
14.97180705 9.840519763 4.016898553
12.94717803 9.213914886 3.396595052
14.01136135 10.7717929 3.598267666
14.39489303 9.46133191 3.19697551
12.986248 9.238986973 2.797006722
14.59711272 9.595339514 2.580448845
13.46958399 9.576128757 2.278277659
13.2354003 10.1587133 2.137936134
13.28943701 10.98879069 2.04464865
13.41358169 8.817350366 1.775571148
13.1544851 9.345890158 1.624005056
13.18941359 10.11573706 1.516809897
12.13708705 10.01312752 0.136488182
13.62135005 10.42211513 -0.313148496
14.86913543 9.694523197 5.42547217
13.20830069 9.343326487 4.754347549
12.78314716 9.787933963 4.558594462
13.70244328 8.940329193 4.316687047
13.82509637 9.779637913 4.284438425
13.34669649 10.20355884 4.077746506
14.50679257 9.471274115 3.884322086
13.03048051 9.213105111 3.411017469
14.04200708 10.72697146 3.597669235
14.29130399 9.3305859 3.167596858
12.99361902 9.184321115 2.792512294
14.50140615 9.468840633 2.55838249
13.31117927 9.402165239 2.24659493
12.72625375 9.706022358 2.050873297
13.32845774 10.95238013 2.045472862
13.37315846 8.732140694 1.766665738
13.17415418 9.299177113 1.622903561
13.24097984 10.09091937 1.519172744
12.16156262 9.970772624 0.136418788
13.62142293 10.35607186 -0.31241828
14.61144363 9.462755496 5.32082692
13.25024731 9.312138829 4.759140241
12.85982573 9.784208978 4.575212715
13.79228574 8.938740518 4.336330354
13.73368041 9.651890689 4.246911343
13.26728094 10.07850255 4.044016953
14.5562484 9.439997086 3.889791408
13.10429696 9.205124507 3.422931721
14.01865401 10.64118387 3.583304992
14.29923974 9.273322213 3.163035194
13.00803215 9.134791598 2.789573785
13.22149796 10.03062935 2.749207303
13.87055691 8.9963447 2.442205171
13.23454659 9.287307446 2.228841806
12.73067435 9.647762415 2.046806114
13.38430237 10.92965283 2.048887493
13.38570918 8.681876334 1.764796774
13.44619429 9.429527868 1.652844285
13.27505205 10.05265381 1.519536213
12.18511899 9.927730082 0.136340721
13.62122035 10.29012578 -0.311688093
14.6822289 9.444787056 5.336026582
13.45417853 9.393928029 4.822013125
12.83528905 9.70351186 4.555870292
13.81720605 8.894814216 4.335565032
13.74732997 9.59861096 4.242006117
13.25547914 10.00555109 4.031043647
14.70080579 9.469801746 3.920638481
13.09638943 9.139693444 3.413525633
14.05827602 10.6034356 3.585100522
14.29290682 9.207046104 3.155370991
13.02387979 9.086387264 2.786980983
13.30105237 10.02683916 2.759339855
13.92470448 8.970892946 2.446881513
13.26297754 9.246660622 2.228841806
12.72218044 9.580019985 2.040705223
13.42316887 10.89291885 2.049711706
13.38136675 8.620851475 1.760728877
13.20075946 9.197122698 1.619198537
13.28912015 9.999304843 1.517627792
12.24116527 9.911064198 0.136626972
13.6327348 10.23328241 -0.3112317
14.60959605 9.334819336 5.299196156
13.48214744 9.352059828 4.82173084
12.87499964 9.671600769 4.559411763
13.18501266 10.6997383 4.633168686
14.03993768 8.977393546 4.396790923
13.85716729 9.612196983 4.266778761
13.27911602 9.959589429 4.028921241
14.71335101 9.414137903 3.916263024
13.16776483 9.129560065 3.424812845
14.05623882 10.53439811 3.576322189
14.33185362 9.170041872 3.157743257
13.13102667 9.101373506 2.803920862
13.29385119 9.957595341 2.75149517
13.91133119 8.902003035 2.43972085
13.89961543 9.627275429 2.330854202
13.72042345 10.26590331 2.19576623
13.40782485 10.812414 2.042293552
13.42700757 8.592079683 1.763257544
13.23627634 9.161675923 1.620099759
13.31255637 9.953120714 1.516809897
12.2707358 9.872835673 0.136618299
15.08635061 9.630175283 0.012182782
13.63521335 10.16989006 -0.310574529
14.62444011 9.281242156 5.294227036
13.33065314 9.186525633 4.757448898
12.90461095 9.632055377 4.559411763
13.33567815 10.75431701 4.674496636
14.42001815 9.158217331 4.506997529
13.92251397 9.594393593 4.277816111
13.31584317 9.923448581 4.030808087
14.74545821 9.371047092 3.917138021
13.14980688 9.057499682 3.412898593
13.51005047 10.06047901 3.42948686
14.35245099 9.121282447 3.156101029
14.52096413 10.80736347 2.998600291
13.92521794 8.850791185 2.437382679
13.7062927 9.431283327 2.293572688
12.79903086 9.51538897 2.043628473
13.45410739 10.78178529 2.044295314
13.51370143 8.589233335 1.771173399
13.82345777 9.505507171 1.688392496
13.36781116 9.930641006 1.519627051
49.37880258 33.9444864 3.845495607
15.05800694 9.554926199 0.662970138
12.34626594 9.871361685 0.137121392
15.10822407 9.579026054 0.012176655
13.63984167 10.10836489 -0.309972105
14.59540581 9.200124535 5.273473651
13.2970236 9.103308609 4.735457644
12.99206275 9.635406114 4.579844233
13.37990224 10.72240214 4.678444851
14.25422898 8.991672648 4.446536962
14.05427661 9.621734109 4.309211069
13.3313865 9.871561483 4.026326296
15.28820099 9.650252208 4.053433816
13.14525015 8.995023555 3.404537728
13.51564584 10.00033333 3.42310249
14.36789588 9.069334677 3.153363746
13.35408909 9.135190708 2.83952963
13.40467247 9.912793434 2.761791275
13.9673642 8.817533008 2.440013151
13.63293572 9.319307864 2.276502157
12.82656823 9.474898394 2.043374319
13.47469332 10.73056001 2.042411331
13.68202814 8.637402633 1.789753716
14.1433922 9.661731452 1.723840689
13.52000234 9.979476946 1.533440189
15.09595391 9.520797285 1.316589341
15.10246749 9.518275117 0.663638842
12.42738285 9.873870175 0.137685222
15.13415566 9.53049827 0.012173932
13.67239947 10.06765641 -0.310008613
14.55385281 9.111660526 5.248335273
13.32885539 9.065169661 4.736867176
12.86122339 9.477348286 4.523450611
13.41499882 10.68310572 4.679234493
14.2768317 8.944818638 4.445006314
14.00276515 9.523506051 4.284438424
13.23402067 9.736743681 3.987879393
15.21108715 9.536441243 4.025212208
13.17035859 8.953002616 3.403910687
13.99943656 10.29198081 3.537618271
14.37565914 9.012677449 3.148984472
13.4135555 9.855849731 2.757378624
14.07229678 8.82351355 2.453603725
13.75734714 9.342552771 2.292480016
14.04302007 10.30704162 2.232116718
13.51378067 10.69409943 2.043353322
13.81456749 8.66191394 1.803606432
14.33186283 9.726126277 1.743166899
13.55537432 9.94148549 1.533985453
15.13354384 9.47973344 1.317324982
15.11296317 9.460231967 0.662821543
12.5062769 9.874115518 0.13822302
15.16501988 9.485083083 0.012175294
13.63221308 9.973709904 -0.308402178
13.9864497 8.696814599 5.034075649
13.36296472 9.028531616 4.739122617
12.88480503 9.4338676 4.52154374
13.47948395 10.66704261 4.690290437
14.49630829 9.020513455 4.504701557
14.01183508 9.466933351 4.278306302
13.2755977 9.704698454 3.991417523
15.24358599 9.491792426 4.026087205
13.22450851 8.93061574 3.410808377
13.5023715 9.862883057 3.404349198
13.57779098 8.454544667 2.968515913
15.36663917 10.37408918 3.253868935
13.63735397 9.956007532 2.797092007
14.6476533 9.121784562 2.549029807
14.75910005 9.956813324 2.454307103
14.07457466 10.26390912 2.232116717
13.59180097 10.68819163 2.050182584
13.86554409 8.63472825 1.806794803
13.8839592 9.360078128 1.68518815
13.59224852 9.904542952 1.534712509
15.1574755 9.430098722 1.31688355
15.12833713 9.405379607 0.662227166
12.59787596 9.883845071 0.138899607
15.1838547 9.432180393 0.012167126
13.67811411 9.94301 -0.308749018
14.78391122 9.922652804 5.232235178
12.91913377 9.39825553 4.523450613
13.49242977 10.61013352 4.683446394
15.02400214 9.285058444 4.659807624
14.02712887 9.414715899 4.274136835
13.28801058 9.651360391 3.986228106
15.16142859 9.376208137 3.996771733
13.26808714 8.900896844 3.414988808
12.95681417 9.403552745 3.259508719
13.24074516 8.188409581 2.889321368
13.15514084 9.542232977 2.692170427
14.95910261 9.252167676 2.59827731
14.05552994 9.419552018 2.33249309
14.29876878 10.36035531 2.262620468
13.63939444 10.65806041 2.052419666
14.22840676 8.800234155 1.850551884
13.90186274 9.310241503 1.683886385
13.62095849 9.861627432 1.534530715
15.17785114 9.378309444 1.316147909
15.15882135 9.359972228 0.662301433
12.69753849 9.899253671 0.139662934
15.21442283 9.386602666 0.012168487
13.68666944 9.885193196 -0.308256117
14.26699307 8.750329337 5.115628634
14.94041068 9.961343189 5.276781308
12.93854814 9.351812424 4.520181417
13.53327926 10.57522368 4.686341751
15.78089274 9.686048237 4.885322991
13.89220578 9.262464492 4.224346452
13.25451658 9.565053668 3.967358704
13.21376421 10.30179462 3.89593155
15.19261656 9.331181209 3.99742786
13.50691171 9.001148306 3.469334415
12.93314573 9.325931389 3.246341339
13.22726504 8.124078431 2.880927602
13.00427249 9.372045776 2.65539889
13.56875467 8.334797234 2.352332334
14.08683666 9.378032388 2.332902694
14.39327577 10.36163992 2.272534387
13.66340083 10.60946502 2.051124575
14.0317518 8.619199393 1.821527045
14.70739944 9.784493568 1.777813888
13.65438266 9.822119252 1.534894303
13.25705372 10.28356058 1.372032248
12.85986235 9.962522332 0.141111521
13.69662495 9.82858362 -0.307799754
14.31173979 8.717462617 5.12205926
15.04449256 9.964200015 5.30271982
13.00547376 9.339573652 4.533530947
15.32259648 9.340156309 4.734554234
14.21314493 9.413586224 4.313135439
13.66209522 9.79557838 4.080340977
13.29150638 10.2969968 3.909520453
15.1853526 9.262677451 3.988020816
13.59888207 9.002311868 3.485847048
12.94257855 9.272512238 3.241553178
13.99329775 10.82544522 3.428379793
13.22778509 8.068611457 2.875635664
13.11317757 9.38954059 2.67174177
14.18300243 10.95519956 2.795189943
13.57399298 8.280764094 2.348824959
15.53263145 10.27190877 2.56710794
14.45968865 10.34224589 2.27799942
13.61962308 10.50865395 2.039703371
14.0029762 8.542463959 1.814380806
13.30046916 8.789749411 1.604478573
13.61720555 9.732120569 1.527351574
13.31459061 10.2629197 1.374721848
13.0876685 10.07490419 0.143271385
13.75439312 9.806250871 -0.308420417
14.11503163 8.538384027 5.042260084
14.33118036 9.428635956 5.041079748
13.12257328 9.36277802 4.564315555
13.77587872 10.6293012 4.747675405
14.71261567 8.906537545 4.537610476
13.94958776 9.177581798 4.224591548
13.71820306 9.772224341 4.088124867
13.34541733 10.27340098 3.916088409
14.26727648 8.642728451 3.739931504
13.88381624 9.129797983 3.551688722
12.94861265 9.216850847 3.235967031
14.03033627 10.78545493 3.429330847
13.24743131 8.024934528 2.874540846
13.15799973 9.360703849 2.675010487
12.62700184 9.691610448 2.482661332
13.60187271 8.240619079 2.349263411
15.3173394 10.06212534 2.526412273
13.7167746 9.747407487 2.156238573
12.72817682 9.758679549 1.901705625
13.91520559 8.430449979 1.799648564
13.39973703 8.796406975 1.613190389
13.64537441 9.689144562 1.52716978
13.31990255 10.20202318 1.372032248
41.95470286 29.74225712 0.929097505
13.18443807 10.08513025 0.143991349
13.80481152 9.778455344 -0.30887681
13.74110905 8.254716666 4.899615203
14.35200778 9.379375967 5.038260683
14.64501697 10.38136644 5.082752464
13.76095675 10.55059446 4.731354702
14.63297049 8.797090558 4.504701558
13.77885477 9.004806721 4.164499575
13.76795007 9.74412657 4.094021438
13.47125548 10.30460604 3.943719213
15.95261704 9.596884469 4.173977776
14.01492007 9.154543618 3.578025392
12.96802792 9.170857658 3.233772625
14.07350134 10.75010702 3.431803963
13.25935205 7.97665207 2.871803801
14.73473311 9.621790559 3.088444349
13.10448108 9.262210594 2.6583405
12.7666658 9.736711296 2.504236306
13.63048129 8.20089059 2.349848013
14.12692321 9.218209334 2.325391793
14.5334091 10.26076521 2.279651898
12.60402085 9.602234738 1.87874532
13.7306411 8.261152372 1.772492688
13.41749266 8.749277126 1.612088894
13.63434934 9.618531894 1.522625999
13.20124271 10.04702847 1.356628024
13.99418904 9.848262525 -0.312436549
13.76636899 8.212520341 4.899615201
14.47004245 9.393287157 5.069555984
13.44802703 9.471005326 4.657214402
13.14634161 10.01547434 4.509448993
14.63664425 8.7382777 4.497558537
13.66086302 8.868004993 4.120595746
14.17299146 9.965669105 4.205352899
13.47256394 10.24024232 3.934886284
15.98198438 9.547896936 4.173977775
14.01504742 9.093405912 3.570918611
12.97365323 9.115256045 3.228186478
14.10719752 10.70747292 3.43199422
13.30148639 7.946524472 2.875635664
14.48818612 9.39751817 3.03070986
13.10457723 9.202119747 2.652620599
12.83821374 9.729127248 2.512403813
13.48148544 8.055016016 2.319890478
14.12105467 9.152733619 2.319792534
14.57131627 10.22068649 2.280668516
12.75218577 9.653425711 1.89640713
13.76445397 8.22408625 1.773592155
13.40836254 8.684813102 1.607783055
13.71435555 9.612094683 1.528260306
13.33057842 10.08102615 1.366734468
13.98172732 9.775491437 -0.311487285
13.75529796 8.148800281 4.886753949
14.48911643 9.342609588 5.066172823
13.46992553 9.424737833 4.654762506
12.85702396 9.732865105 4.399944292
14.93203289 8.852603207 4.579958384
13.70104215 8.834457382 4.124520116
13.47934299 9.416265927 3.99094593
13.25053441 10.00749298 3.861053533
14.25810088 8.458773771 3.71696035
14.08480179 9.077383476 3.581578783
12.9943258 9.070363079 3.226390948
13.45492927 10.14748756 3.265721342
13.36131924 7.926748768 2.883299631
14.4929373 9.337555078 3.025697108
13.14083881 9.167516649 2.654254958
12.73224108 9.587466018 2.485897625
13.39893614 7.950013771 2.301477412
14.21736968 9.153340668 2.330990816
14.61643913 10.18557437 2.282829303
12.83888179 9.657236129 1.904884817
13.82381221 8.202106065 1.777989786
13.4023111 8.622640573 1.603877759
13.979967 9.734433879 1.554523424
13.37498959 10.05025876 1.368120038
14.95100747 9.616073004 1.140826965
42.37936294 29.46100773 0.93245724
14.02068506 9.738824407 -0.311688093
13.80660984 8.122077749 4.896107587
14.52740617 9.304323834 5.069555984
13.48771576 9.37567971 4.650948759
12.86061033 9.673656812 4.39099406
14.71748351 8.664492586 4.505977098
13.90686614 8.906887562 4.178234869
13.44749317 9.33275823 3.973019241
13.28740661 9.971470314 3.862865275
14.27641846 8.410533418 3.714991253
14.11670217 9.036764622 3.582623771
13.00357163 9.017610725 3.221802343
13.52842163 10.13795146 3.275994559
13.49993824 7.953092513 2.90793399
14.44519274 9.244203654 3.009794114
13.19890348 9.147951878 2.660301731
12.69751473 9.500413022 2.473414982
13.36956682 7.877231176 2.292270879
14.14273212 9.044034646 2.314193512
12.80779765 8.866958565 1.996093529
12.82708725 9.586887764 1.898761991
13.82835828 8.147547175 1.775351207
13.42367134 8.578267228 1.603276944
14.015499 9.695464632 1.555159525
15.01323675 9.591111927 1.143324639
42.7155381 29.50073835 0.937858136
14.05790351 9.700874536 -0.311852393
14.23608526 8.316042811 5.039337072
14.56154953 9.263315123 5.071529612
13.59242307 9.386744853 4.67710185
12.82686241 9.586796591 4.369409072
14.80660143 8.655898489 4.525110189
13.89977205 8.842326023 4.167933281
13.40165789 9.24015803 3.951083538
13.2414142 9.873598876 3.840670174
13.60224952 7.957253027 3.533190648
14.15013723 8.997085879 3.584086947
13.24017264 9.121659429 3.273474088
13.44685911 10.01255619 3.248789807
13.51493935 7.906177125 2.905926745
14.54164681 9.24316865 3.023968574
13.2464083 9.120842436 2.664223955
12.70360676 9.444317131 2.468945826
13.40050145 7.840173449 2.293440082
14.29751545 9.081334868 2.334951185
12.82922019 8.823688404 1.995203752
12.82375104 9.523215951 1.893934491
13.84985807 8.10307696 1.774911444
13.45496625 8.540243244 1.603877759
14.20850381 9.764663837 1.573243931
13.51324808 10.02500999 1.37594434
15.0425912 9.545006745 1.143324639
15.09054076 9.564353513 0.492807001
14.06780798 9.644132359 -0.311414269
14.85383147 8.615888341 5.248627574
14.62639947 9.241659097 5.084216819
14.4470905 9.911643813 4.960703133
12.85853763 9.549124849 4.370198715
15.33315472 8.900714473 4.677665176
14.3898877 9.092219305 4.306513124
13.47403835 9.229202667 3.964056369
13.21451259 9.79059986 3.824137037
13.48991037 7.836084688 3.497749251
14.19751712 8.96616356 3.589103512
13.44276009 9.200541448 3.316567054
14.22017039 10.52070382 3.42780902
13.42860804 7.800475095 2.882204812
14.94721842 9.436703978 3.102272866
13.27269978 9.079046242 2.663897083
12.8270953 9.475159018 2.487284507
13.84790971 8.045011152 2.365776756
14.5632552 9.187541668 2.373734976
12.84394623 8.775893852 1.993297356
12.84012266 9.474394645 1.892050508
14.92831536 8.672678351 1.909700912
13.49793722 8.509535654 1.605880474
14.2564893 9.733379948 1.575243191
13.52949969 9.972859931 1.374477349
15.06504986 9.494555468 1.142812277
15.1274264 9.522803663 0.493055165
14.06427443 9.578415003 -0.310684053
14.75671793 8.49916007 5.205074221
14.71969676 9.237541868 5.106771696
14.53706102 9.907916144 4.981135604
12.8955364 9.515358265 4.37283133
15.36374037 8.855562648 4.678685607
14.44809685 9.067095578 4.315587815
13.44122966 9.146272373 3.946130153
13.1354566 9.669749367 3.792656012
13.51557767 7.79563651 3.498186985
14.71787296 9.231744089 3.713471224
13.54790509 9.211597982 3.335519902
13.54838297 9.95951442 3.25849225
13.52146284 7.799030867 2.896985333
14.61143912 9.162140459 3.026734229
13.3070195 9.042720153 2.665204571
12.69839057 9.320006637 2.456771458
13.57517873 7.830960987 2.315067986
14.30847783 8.965558418 2.327713276
12.86916861 8.73533371 1.993042966
12.89956239 9.457268586 1.896524908
13.7331523 7.922089066 1.753692549
13.71540984 8.587948229 1.628611302
14.28381078 9.687919518 1.574970559
13.52143659 9.903038162 1.370565139
15.08818683 9.444585596 1.14236405
15.15063755 9.472639068 0.492862136
14.09028116 9.532980227 -0.310611037
14.8906446 8.515564452 5.243073851
13.89303709 8.659465049 4.810735451
14.77533568 10.00406565 5.05224013
13.03437056 9.556179352 4.409946906
15.20285705 8.700801905 4.621540969
14.36395602 8.95298618 4.282230672
13.45956575 9.098460957 3.943299647
13.13911865 9.610428859 3.785182304
13.51487517 7.740071377 3.49184243
15.12876532 9.424923355 3.809830001
13.38040625 9.03780746 3.287439456
13.67400953 9.987387582 3.281321309
13.70913983 7.851328311 2.932020705
13.98651363 8.710611962 2.89173257
13.2905448 8.972044458 2.656379506
12.94327075 9.438773233 2.498534288
13.58283015 7.779934039 2.312291364
13.58905244 8.456826061 2.20644548
12.89837469 8.697474205 1.993424434
13.30576878 9.692455056 1.951865199
13.72289265 7.860158714 1.749294799
13.88955251 8.637782784 1.646135186
14.35888962 9.674656885 1.579968766
13.54692012 9.857988925 1.370076143
15.10692092 9.391928065 1.141595507
15.17792971 9.425058723 0.492807002
44.51289095 29.94198311 0.969179662
14.12029162 9.490264221 -0.310629276
14.96825989 8.499117329 5.261196526
13.84285542 8.569330693 4.784232843
14.70775763 9.892637255 5.018730877
13.70928332 9.986471347 4.6279044
14.72844305 8.369407046 4.469496671
14.39794989 8.912957975 4.284192856
13.52129994 9.079879466 3.953206179
13.17563208 9.575226629 3.787220544
13.82441078 7.861119308 3.565569084
15.53848297 9.614122712 3.905561736
13.37389545 8.973782768 3.279060234
13.65055597 9.906179343 3.268384716
14.00751862 7.965242388 2.990595382
13.59099186 8.406527967 2.804612513
13.11890178 8.797704188 2.616666124
12.82414697 9.291771638 2.470024433
13.59201535 7.729912002 2.309807042
13.49696093 8.34217843 2.187326694
14.99263397 10.04287621 2.312316435
13.1729424 9.533977047 1.92808068
13.66745581 7.772815548 1.739180129
13.90921544 8.59094698 1.6453341
14.50684942 9.709770168 1.592964009
13.55933087 9.803534415 1.368282997
15.12887105 9.341341707 1.141083146
14.16680373 9.458558215 -0.311012653
15.02008995 8.467714403 5.270257865
13.86662854 8.525313875 4.783387407
14.69963754 9.821810391 5.00565457
14.02354807 10.14968861 4.7234578
14.80457783 8.352688199 4.484803142
14.82494076 9.114491423 4.402905281
13.55556085 9.042667768 3.955093262
13.23811326 9.558707687 3.796732732
13.707412 7.739033895 3.529252688
15.51125015 9.531590473 3.891348175
13.42256349 8.946840565 3.28424727
13.60284303 9.807985065 3.24974086
15.84013648 8.943143648 3.375984233
13.59405945 8.3508721 2.799945232
13.1014948 8.727878817 2.607840824
12.72429236 9.16002108 2.445367421
15.39020036 8.69017747 2.610844831
13.55626068 8.321460819 2.192789339
13.86068 9.223153152 2.133360643
12.94494046 9.308575758 1.89051986
13.6912381 7.730847945 1.739180129
13.88970833 8.520139409 1.639926648
14.69911046 9.773289419 1.610775665
13.55210851 9.735140876 1.364533865
14.19325553 9.413392832 -0.310957877
13.95577051 8.521230021 4.805096375
14.73130491 9.777730085 5.00619912
13.07477625 9.402015135 4.394153104
15.37930428 8.614852043 4.650878847
14.9041335 9.100289202 4.41811257
13.59377016 9.008015534 3.958159563
13.28162221 9.528267817 3.80080945
13.61448038 7.631578048 3.49928085
15.48282166 9.448808128 3.876925757
13.5193961 8.951602121 3.301205267
13.60094666 9.743336148 3.242131253
15.69339498 8.796910572 3.338941616
13.48844749 8.229102539 2.772979376
13.11257809 8.677298412 2.604735897
12.74269068 9.114042888 2.443518245
15.41074815 8.639534532 2.609821777
13.57157721 8.27364433 2.191150452
13.82850632 9.140658305 2.124082346
12.96535752 9.263044937 1.889342429
13.79031991 7.731093523 1.748745125
13.85970058 8.443322504 1.633317685
14.74730682 9.740221316 1.612774924
13.57704424 9.690043562 1.364044868
14.80656578 9.771939932 0.970107286
14.22874743 9.374204904 -0.311103938
14.25339542 8.64303665 4.89841865
14.7789055 9.744140943 5.012192487
13.28645837 9.492530624 4.455486285
14.92037727 9.047483909 4.414678391
13.66760989 8.996724308 3.971604462
13.30841246 9.485780019 3.800129957
13.64891412 7.595942181 3.502124945
14.24975777 8.636409393 3.56151276
13.72854408 9.029623797 3.345495333
13.02130123 9.267777421 3.097165606
16.18595598 9.007866394 3.437843601
13.43865815 8.142257252 2.757595178
13.15562493 8.647866504 2.608004376
12.93167481 9.189372883 2.47433957
15.73193917 8.756273576 2.659653882
13.58587927 8.225298327 2.189375186
14.43687776 9.479278193 2.213051815
12.99047638 9.220925273 1.888871434
13.96856174 7.774792043 1.768314879
13.72804855 8.305479765 1.614792561
14.77378919 9.692746824 1.612411455
13.56605811 9.619519245 1.359969698
14.78637193 9.693620908 0.966831235
14.2557671 9.329412063 -0.3110674
15.45577289 8.526832758 5.395364672
15.36312095 9.25161175 5.270014987
15.24660171 9.985531188 5.160395382
13.39340051 9.507006639 4.481546388
14.95387799 9.005166886 4.416395481
13.71792076 8.969640993 3.978208658
13.97415799 9.895788599 3.981541698
13.90788024 7.684274151 3.562506358
14.18988803 8.540709063 3.539983563
13.85708295 9.053385027 3.370034328
14.02519211 9.917600975 3.32869198
15.95361795 8.814568939 3.382736008
13.43825602 8.085755739 2.752409336
13.26222198 8.659784776 2.623857067
12.97272135 9.158773361 2.476805295
15.3933347 8.506057538 2.597985009
13.54907417 8.146316259 2.179405953
15.18038029 9.900944818 2.322357196
13.01221179 9.176448937 1.887929442
13.87664507 7.667964727 1.753692548
13.76369985 8.269473003 1.615994191
14.81930902 9.657706163 1.614138082
13.62728344 9.600240477 1.363148296
14.95159262 9.736482235 0.975676684
44.58980382 29.01030423 0.961051257
42.00487282 29.55240212 0.445514424
14.29689662 9.293806731 -0.311341254
15.47934457 8.477996438 5.39448777
14.2798106 8.539659517 4.889396417
14.47064195 9.414016865 4.887964009
13.28926511 9.371908207 4.437059867
15.07711777 9.016467091 4.44460183
13.83991189 8.988913678 4.005569575
14.0307404 9.87136499 3.98901517
13.79365001 7.56601709 3.527283827
14.22777491 8.504158237 3.542909911
13.91109618 9.027899271 3.376418462
13.26669972 9.320329258 3.141872902
15.97627457 8.763217989 3.381823579
13.45877202 8.041963609 2.751545069
13.37894632 8.677572712 2.64167075
13.0225991 9.134249546 2.480966175
15.40027723 8.448324166 2.594769936
13.49830371 8.059510976 2.167252087
15.26229627 9.887762466 2.330237406
12.803636 8.970667032 1.853665592
13.9828898 7.670770104 1.76413707
13.70612402 8.177756175 1.606281017
14.93413927 9.667395492 1.623407439
13.67545222 9.571531635 1.365022861
15.03002059 9.722018974 0.978843539
14.35810025 9.271051984 -0.312053201
13.89512698 8.251840326 4.748990759
15.24050928 9.848447536 5.137783761
13.31953596 9.332199933 4.437586296
16.06309727 8.740662506 4.824862424
15.07803475 8.954328397 4.436753089
14.07075657 9.077588847 4.064301608
13.58196238 9.493465646 3.853126593
15.13052038 8.239024751 3.862663429
14.25295718 8.459969182 3.542700818
14.33982448 9.24373297 3.473577369
13.14307899 9.173386221 3.105916758
15.99790435 8.711341281 3.380728762
13.52742783 8.026770977 2.760533688
14.85768563 9.572051323 2.927835509
14.53971452 10.13196717 2.764060344
15.41482939 8.394885866 2.592870216
13.4939946 8.00088366 2.162608886
14.55687518 9.367473138 2.218135851
12.80909163 8.916026142 1.8504864
14.29441129 7.784708302 1.800418061
13.82359726 8.190443559 1.617095685
14.90006685 9.58059855 1.616500811
15.00937347 9.643478142 0.975567488
13.9550885 8.229641109 4.760832059
14.55566298 9.342720098 4.89722657
13.48904342 9.389397189 4.484442219
16.07027044 8.680770973 4.818994942
15.13215743 8.923785638 4.444601828
14.29818251 9.162308923 4.12185442
13.36541282 9.281194573 3.78359682
15.16087627 8.195350159 3.86397616
14.27547511 8.414215854 3.541864685
14.06360646 9.004721992 3.39996015
13.17196813 9.133580699 3.106107018
16.13526564 8.722065369 3.404085676
13.6563666 8.046733398 2.781795141
14.31859337 9.162702445 2.81604986
13.27661963 9.191399764 2.518568124
15.46487853 8.360727712 2.596961956
13.52359935 7.962462561 2.16342833
13.21574837 8.447224052 2.009820241
12.81106558 8.859177342 1.846836331
14.24915397 7.703474382 1.791732709
13.86152384 8.155563338 1.618597722
14.95037195 9.548241906 1.618772702
14.45965466 9.988777242 1.43715366
49.26960998 33.99751429 2.705703904
15.07304038 9.61029684 0.322951498
15.04663307 8.811245263 5.123970257
14.75301234 9.405607403 4.953892467
13.41780741 9.278830562 4.451274857
16.0209873 8.590760196 4.796290341
14.33032382 9.121008353 4.123033639
13.40745318 9.249549241 3.787447041
14.0217664 7.524097486 3.567756813
14.29869041 8.368897154 3.541237643
14.1085299 8.972576112 3.404149642
13.18780069 9.084772331 3.103253385
15.67765363 8.41264833 3.302081625
13.71669446 8.025689483 2.789055225
13.93532884 8.857302914 2.735315844
13.39023582 9.209415076 2.534749354
14.44183644 7.750481318 2.42116187
13.56250268 7.9294352 2.165749813
13.11599388 8.326893901 1.990755337
12.83654781 8.818707739 1.846600893
13.90313856 7.461378687 1.745336931
13.86414278 8.099948092 1.615994191
14.97454947 9.499129012 1.618227438
14.44750032 9.915042128 1.432915413
15.06573237 9.549596856 0.975403636
49.5788473 33.9868419 2.716947009
15.09400619 9.558658443 0.322770866
15.05783556 8.755878617 5.118613467
14.65092151 9.277425834 4.910031077
13.55832923 9.314647042 4.488390433
16.08823673 8.56337594 4.808535518
15.29957527 9.672094766 4.39334261
13.5201276 9.266190174 3.811227626
14.95423291 7.965467725 3.798781555
13.86773382 8.059644057 3.428366234
14.72005435 9.298183776 3.544800393
13.29419722 9.098051807 3.121706983
15.16449608 8.077465571 3.188764135
14.14748593 8.219588249 2.871508237
13.89736807 8.773430274 2.722568319
13.25363382 9.055694462 2.503619757
15.08370209 8.035443942 2.524625281
13.96458069 8.107128608 2.225974106
13.07267903 8.243233267 1.980333108
12.86190245 8.778164549 1.846365336
13.92508628 7.41822202 1.745227019
13.89064867 8.058373546 1.616194462
14.99098338 9.445179835 1.61686428
14.47126252 9.866179629 1.432263338
15.06960875 9.487371848 0.97376564
49.67545455 33.82951427 2.716540744
31.66556277 16.83849521 1.33325876
15.11818326 9.509112206 0.322662504
31.94793345 16.97363271 0.0246249
15.11786258 8.72883011 5.129891142
14.80637348 9.312346186 4.952530144
13.62190305 9.296936456 4.499972807
16.06912262 8.490037631 4.795014801
15.34728286 9.636479563 4.398531554
13.40276642 9.125447969 3.770234413
14.76984501 7.809177119 3.745838325
13.69250428 7.901707342 3.379037192
14.23387413 8.930103792 3.42110764
13.50228329 9.179760102 3.163941165
15.16834567 8.019874217 3.184384626
14.95839412 8.629446309 3.030709861
14.01616107 8.788401952 2.740545557
13.24129577 8.987799605 2.496068563
14.11919708 7.466109586 2.359346847
14.31122856 8.249775182 2.277184988
13.08613855 8.19571764 1.97855379
12.91178675 8.754266627 1.849662187
14.16832201 7.492086622 1.772822539
13.93427423 8.026646389 1.618397451
14.082836 8.812753551 1.51599212
14.49403692 9.81670567 1.431529843
15.08933256 9.435270853 0.973165004
31.63488331 16.69788557 1.329803836
15.15746105 9.46904148 0.322879257
44.59256125 30.16136424 0.466991706
31.70796253 16.72160186 0.024400276
14.82916097 9.263308637 4.95062327
13.65994336 9.261597971 4.503131378
16.1139326 8.450577333 4.800627174
15.19784043 9.477761945 4.347347376
13.5783427 9.18414845 3.811680383
15.85647731 8.321560669 4.014929693
13.90165341 7.965650328 3.424603753
14.25538265 8.882765239 3.419710984
13.68414636 9.242142968 3.199897072
15.19636165 7.97512855 3.185114663
14.88394757 8.525745719 3.01031291
13.96350082 8.695815169 2.725019739
13.20654754 8.905151237 2.484356488
14.14466352 7.424136321 2.359785061
14.33475179 8.204845216 2.276911997
13.12132872 8.161817421 1.980078954
12.94929161 8.72182457 1.851192954
14.32061278 7.516487179 1.788984101
13.973516 7.992256324 1.620099759
13.97278552 8.684345835 1.501270132
14.5331823 9.778312288 1.432426416
15.10039534 9.377870083 0.972018389
31.76208969 16.64063536 1.332998646
15.18729008 9.423022473 0.322897317
14.04399482 8.713054921 4.679553748
15.40703212 10.37728889 5.068556772
16.13806813 8.400207635 4.800116959
14.93190974 9.248414986 4.263141273
13.86597304 9.316822402 3.884380885
15.38865126 8.015924519 3.890228907
15.67102924 8.915751982 3.85372453
14.30673187 8.853943004 3.425496688
14.02630606 9.410702035 3.273140927
15.22686127 7.931648579 3.186391872
14.10181866 8.020371554 2.84713542
13.99346904 8.655009824 2.725673482
13.15992436 8.815103131 2.470486963
14.39548444 7.499543847 2.397780161
14.34435355 8.152018557 2.274453902
13.16149635 8.130907698 1.982366818
13.61067421 9.106715937 1.941739085
14.45379125 7.529919701 1.802726905
13.99537447 7.947874357 1.619799351
15.20693446 9.386839057 1.630768374
14.54405432 9.720941563 1.430551849
15.11294801 9.321539123 0.970980911
47.06308474 29.0009094 0.998712929
14.04116988 8.651756465 4.669746633
14.48945679 9.694777092 4.756888378
16.36306203 8.453620265 4.859301988
14.94034756 9.190341024 4.257480262
14.01844026 9.356971635 3.919032639
15.78675604 8.161820411 3.984520356
13.84809249 7.822485032 3.3995214
14.35720297 8.824375725 3.431082835
14.10004193 9.397571655 3.283604402
15.24413657 7.881283246 3.184932272
14.38708426 8.124300594 2.899684067
14.00146294 8.600678289 2.722077893
13.17374526 8.765930281 2.468021238
14.33845862 7.413995636 2.384481887
14.23901969 8.034461958 2.253832841
13.20075156 8.099308256 1.984527368
15.14291711 10.06479974 2.155917886
14.47505919 7.484627991 1.802506965
15.25126966 8.599315797 1.762092567
15.1634948 9.295899826 1.623043851
14.5339543 9.649812971 1.426639639
15.14317729 9.276173289 0.971090107
47.34286563 28.97329398 1.002759131
14.05287436 8.599597783 4.66484284
14.76177345 9.811551947 4.836384761
16.37945615 8.398527313 4.856495803
14.98091202 9.15206034 4.261018393
14.07143467 9.330066888 3.925827092
15.81779852 8.11646709 3.986051481
13.91637895 7.804837503 3.410390427
14.3607888 8.765991989 3.425496688
14.40548939 9.537452413 3.34790661
15.25949621 7.829989191 3.183107416
14.39046401 8.068080753 2.895362494
14.1128468 8.609574191 2.738584326
13.22530421 8.741816955 2.472644412
14.83464907 7.612972031 2.463102559
14.18668369 7.947648681 2.241678739
13.53385695 8.246640778 2.030791539
15.16460782 10.01227563 2.154622795
14.91268637 7.653019581 1.854069989
13.73740688 7.690286394 1.584451413
13.85818213 8.437299285 1.480550483
47.45203919 28.84037458 1.003192576
14.05699067 8.542951815 4.657487149
15.42138124 10.18189144 5.042233453
16.40859257 8.349989599 4.857516234
15.00891967 9.106056561 4.261018393
14.29277568 9.413828216 3.979503221
15.31656702 7.800003391 3.853693646
15.10137727 8.408630587 3.694450191
14.27532934 8.653823656 3.39876305
14.36742165 9.448977573 3.332306643
15.25190501 7.76707477 3.176538269
14.31790009 7.969762581 2.875829575
14.24213518 8.628602652 2.758522794
13.25288801 8.701743704 2.472798433
14.89055126 7.584036159 2.468509416
14.08720021 7.835230411 2.222150349
13.38088622 8.097240184 2.004100581
13.89735928 9.114488826 1.970586779
14.95292348 7.615802964 1.856158894
14.47755077 8.046387718 1.666963433
13.8533229 8.376193409 1.477278904
14.7171107 9.641834503 1.438783728
14.10455277 8.512711892 4.664570092
15.44851242 10.13188636 5.040917382
16.46779193 8.316609237 4.867465439
15.10254319 9.099587108 4.279652235
14.45037043 9.454189538 4.01528699
15.14079651 8.369830949 3.697794489
14.48818229 8.722185633 3.443053117
14.31826288 9.353845898 3.314233561
16.63053502 8.404991446 3.458280842
14.31814564 7.912459285 2.870989677
13.86784753 8.343786419 2.681057261
13.27952215 8.661043698 2.472798433
14.67801731 7.41916371 2.429491499
14.22217401 7.853268315 2.239630247
13.37505816 8.037757485 1.999525089
13.78463956 8.980202047 1.950687769
15.924771 8.786889144 1.83048544
13.83882895 8.309557907 1.473007755
14.74328053 9.594463303 1.438457691
14.69757673 8.809224377 4.851730583
14.93066754 9.726879641 4.862181651
16.47507639 8.256950045 4.862108174
15.71573825 8.62945542 4.536088761
14.97177877 9.72985836 4.151855533
15.3001415 8.39673538 3.730401805
14.35255049 8.580651279 3.404548754
14.10394891 9.152224845 3.258111735
16.98845343 8.520550798 3.527256766
14.34235347 7.868494749 2.870989677
14.21604946 8.493993268 2.743323849
13.29525125 8.613277732 2.470795001
14.80682086 7.427324173 2.447027664
14.28789702 7.832455636 2.246185327
13.37410266 7.981435993 1.995712061
13.80712249 8.934632533 1.949981334
14.98160264 7.514997295 1.853960078
14.36521375 7.86897211 1.64843831
13.81550232 8.237990717 1.467827872
14.7860388 9.557843642 1.439761721
44.64775782 28.82099782 0.460980488
14.82126917 8.821669448 4.883605238
14.5481788 9.414250367 4.728196131
15.60935156 8.508816002 4.497826391
14.53675021 9.383834313 4.023213931
15.51818731 8.454554779 3.777222684
13.09807011 7.776214803 3.101301541
14.13361174 9.10997497 3.258492251
17.0426812 8.482409949 3.533095877
15.22621409 8.292726322 3.042810078
15.22708867 9.034804847 2.933065221
13.46951175 8.667620521 2.498226013
15.05005418 7.491631408 2.483415344
14.37276817 7.821731117 2.25574472
14.0308222 8.315085038 2.089892645
13.65152411 8.774640992 1.924195054
14.38229499 7.821060409 1.647637223
13.8227164 8.184910281 1.465919451
15.15663524 9.731600537 1.472933732
44.69640563 28.65851823 0.460572822
14.86814336 8.787906836 4.890143629
13.93911726 8.959569183 4.521294582
15.62856212 8.457195608 4.495864207
14.60810765 9.366530152 4.034990855
15.3487946 8.301301917 3.729774764
12.96063824 7.640942263 3.063196053
14.3169327 9.166086859 3.294257899
16.06894468 7.936347551 3.32616834
15.1952667 8.215525186 3.031574363
13.41621155 7.904793089 2.579567716
13.49603974 8.62625617 2.498226013
15.05168108 7.434908459 2.47990797
14.27467623 7.711679227 2.236625933
13.53224471 7.963617081 2.011980791
13.20798213 8.432400183 1.858022097
14.91692973 7.368346731 1.840327185
14.22060645 7.676698573 1.626408314
13.8357434 8.135398243 1.46464713
15.10406754 9.632535803 1.464946352
15.08997956 9.61021901 0.155189706
15.0834004 8.852807292 4.95198512
13.99174663 8.932855808 4.529454697
15.67407717 8.419759856 4.501505192
14.67456627 9.345737239 4.045409268
15.36729794 8.250473376 3.728102735
12.98824757 7.603618977 3.064193596
15.24796886 9.696334898 3.501623412
16.66356114 8.166527064 3.444047731
15.30978925 8.21684358 3.049378511
13.41485443 7.848649359 2.574664876
13.84692688 8.790811842 2.558173741
15.09929254 7.400886438 2.48399971
14.21096643 7.62103098 2.222969556
13.98651877 8.173287029 2.075784701
13.1398619 8.332277055 1.844834688
14.91447521 7.310298813 1.837248843
14.25461598 7.638673998 1.627609945
15.67265942 9.1509113 1.65612276
15.06282401 9.541352042 1.458100044
15.05710812 9.526687717 0.805362513
31.60433567 16.90896129 0.988674582
15.11432155 9.560671238 0.155137671
15.76056409 9.185358087 5.1650269
14.37593918 9.116177538 4.64475106
15.71010055 8.377107201 4.504448707
14.89496435 9.421994776 4.098179406
15.38649675 8.200067976 3.726639559
13.01151411 7.563735774 3.064193596
14.79207383 9.342818452 3.39033105
15.42359205 8.21707353 3.067010041
15.20552695 8.833813782 2.913126753
13.82452133 8.71719478 2.54908141
15.05342516 7.321212162 2.472747307
14.04452521 7.476383494 2.193335557
16.19150071 9.395290603 2.398743886
13.14183505 8.277107068 1.841537835
14.90823014 7.250596414 1.833730738
14.2858897 7.599110855 1.628511167
13.81647764 8.0103906 1.457377151
15.09961797 9.499871677 1.458833539
15.10064419 9.489484654 0.806130161
107.8447427 52.3500957 4.45652951
31.61456773 16.7898852 0.987378657
15.14104223 9.512659643 0.155111639
15.83780392 9.165396251 5.181100128
14.71730337 9.269460208 4.745832905
15.76400272 8.343835535 4.512542542
14.91555355 9.371071049 4.095914431
15.3770055 8.134533175 3.718278697
13.03635541 7.524761163 3.064592472
14.97701573 9.395474548 3.426096698
15.24498713 8.061970626 3.026561376
13.99771606 8.074786303 2.676971482
13.90228042 8.706731721 2.558481779
16.72853395 8.072531198 2.743827562
14.0209752 7.408731086 2.186097646
14.82537409 8.541890712 2.192461748
13.13433368 8.216210067 1.836945656
14.95099279 7.214759847 1.836259405
14.33113218 7.566860668 1.631014561
16.25412127 9.357154309 1.71146615
15.146441 9.464592852 1.460545145
15.13053343 9.443640147 0.806175282
107.8923026 51.96478279 4.451885593
31.6783098 16.69933989 0.987764657
49.966001 28.71330569 1.041125329
15.15827887 9.458752224 0.154990209
14.78820286 9.250869559 4.759520993
15.73202582 8.265223965 4.496109302
14.94753842 9.327329215 4.096820421
16.56040434 7.927786994 4.116440694
15.43305865 8.103686058 3.725803427
13.08403459 7.498861167 3.070378175
14.8982831 9.282509631 3.40155532
15.14145001 7.947869681 3.001151438
13.77073847 7.887643671 2.628923224
13.97339358 8.691698443 2.566649522
15.05166569 7.206493586 2.465148428
14.23488751 7.465987776 2.215868259
14.82998672 8.484053311 2.189284343
13.14682633 8.168014842 1.835179569
14.92285388 7.144820499 1.830102603
14.3666179 7.52932397 1.632416463
16.31387744 9.325034405 1.714737729
15.18302849 9.422809761 1.461278641
15.15603886 9.395070783 0.805994679
31.74622259 16.61087996 0.988288523
50.01998683 28.54055205 1.040420802
15.17872678 9.406935055 0.154903469
15.20343822 8.674195937 4.956071614
14.31582863 8.894382328 4.598685251
15.74871327 8.212436633 4.493656452
14.90488323 9.237300572 4.077343053
16.55908764 7.864802542 4.110096375
15.45090977 8.052683683 3.724131158
13.38121239 7.614740327 3.134618632
14.31225892 8.856543802 3.261536141
14.40756209 7.506355354 2.851111052
14.16019715 8.053124718 2.698544072
14.15634245 8.745375279 2.595313395
16.79651539 7.978648752 2.746896248
14.18655207 7.385228422 2.204806828
14.52303421 8.249414919 2.140223998
13.51493674 8.339359995 1.882984164
14.92854402 7.091327872 1.82812361
14.42937041 7.505874169 1.636922574
15.92668201 9.038998461 1.671117262
15.24580412 9.397103497 1.464538777
31.83961689 16.53551847 0.989612044
15.17388817 8.5957368 4.937818765
14.20511937 8.765309951 4.554461944
15.87370787 8.21577366 4.522108372
16.14823097 9.131683539 4.502786753
15.06089293 9.270155496 4.112221306
16.61932805 7.831015893 4.119065684
15.45556518 7.994908951 3.719323686
13.48555939 7.619444159 3.153571716
13.50044683 8.297016623 3.070721647
14.36228167 7.426829737 2.837628242
14.08175008 7.95143365 2.678932712
14.33301446 8.793877258 2.622744407
16.23208881 7.649587731 2.65073965
14.12289328 7.297105913 2.191423678
14.10851703 7.956809083 2.075530546
13.53961114 8.297338426 1.882866385
14.92685304 7.034477957 1.825265091
14.49565181 7.48393659 1.641829229
15.91616246 8.968583239 1.667118743
50.76321991 28.55317639 1.052216085
14.49927654 8.885516354 4.64001273
14.94682189 7.677996034 4.251326376
14.37806533 8.072554335 4.002267478
15.09175597 9.225429738 4.112900799
15.47045092 7.942541231 3.717024615
13.51399895 7.580911932 3.154768814
13.35488998 8.151219835 3.031912108
14.48752328 7.435350349 2.857852574
14.12328886 7.917843231 2.682201193
14.25445582 8.685597809 2.603481138
16.26444237 7.603942141 2.652200918
14.14962116 7.256003524 2.192106508
13.98054206 7.828197772 2.053160925
14.08245996 8.57068815 1.954691055
14.95646768 6.992438252 1.826254646
14.57875728 7.47028327 1.648638582
15.74718733 8.809825099 1.646580771
50.85494442 28.39974056 1.052306445
30.04852679 14.00738938 0.02256653
14.32538773 8.718610286 4.575784192
14.97980842 7.636946982 4.254024322
13.6872094 7.629539474 3.803427813
15.02423915 9.120957953 4.086855476
15.48167578 7.888382184 3.713889173
15.16716981 8.44721609 3.534625641
13.21444409 8.009957536 2.994434137
14.92013153 7.599634276 2.938577051
14.18371923 7.894628044 2.689065264
14.83980064 8.979947989 2.705345716
16.26346436 7.542769897 2.648255329
14.17446488 7.213907096 2.192516113
13.94380729 7.751533308 2.044264096
14.07894329 8.509464858 1.95056999
15.00039157 6.956974246 1.829003136
14.64417715 7.447169665 1.6534451
14.46739265 8.035660656 1.510176019
50.97331581 28.26103969 1.052956732
29.97881013 13.86308956 0.022482126
14.24968943 8.612740077 4.543143258
15.00749279 7.593142425 4.255250747
13.70800076 7.586100033 3.802720186
15.93717984 9.608397249 4.327151843
17.20840483 7.915869138 4.246829431
15.63845165 7.907924195 3.745660357
15.16900331 8.387367737 3.52903973
13.17250918 7.929380157 2.979404709
13.99403264 7.073934507 2.751890776
14.3045842 7.904517002 2.707369373
15.08577975 9.065682637 2.74510535
16.27304671 7.486636498 2.646063307
14.51485779 7.331167418 2.241678739
13.96144462 7.705362785 2.043374319
15.00089689 6.901366369 1.826474469
14.6678445 7.402655293 1.653545236
14.47976877 7.984505049 1.508903698
15.5617065 9.330258395 1.483773672
30.32055819 13.92182273 1.240310681
121.9339117 61.43689874 3.766128481
30.11482139 13.81399564 0.022552236
14.23220553 8.542667692 4.529191482
15.04284687 7.553154144 4.258684452
13.70991723 7.532310552 3.796823379
16.08357834 9.629504813 4.35885913
17.26900691 7.879644369 4.255799215
15.65739515 7.857276879 3.744406275
15.46352734 8.488377253 3.591484655
13.18076447 7.879358751 2.975790282
14.0015831 7.023901889 2.74912512
14.32703788 7.859644748 2.707042502
16.28693545 9.719620021 2.95823511
16.30493867 7.440783341 2.647524575
14.51868311 7.277280069 2.238810803
13.90151035 7.616738693 2.031172771
14.74420244 8.788490625 2.03522897
14.46985727 7.24712003 1.628711438
14.48759901 7.930958303 1.50717707
15.73584202 9.369152917 1.497629249
122.4687242 61.2359816 3.776826799
14.25834768 8.498964149 4.529191483
15.08069985 7.514318034 4.262854391
13.72698975 7.486956506 3.795172331
16.11890547 9.583600296 4.360444612
17.28065432 7.820994038 4.252736489
16.57966399 9.034975545 3.844257225
13.37793525 7.94161794 3.014790079
13.9886785 6.96379385 2.742383833
14.36581206 7.82367428 2.709820793
13.36291306 7.919143748 2.42271384
16.31327043 7.384198588 2.645186405
14.6819688 7.302850631 2.260524298
14.06161192 7.648462769 2.051127452
14.79502306 8.757377945 2.038525822
15.02847216 6.80263501 1.824715416
14.49291392 7.203135732 1.628811574
14.50573779 7.883145246 1.50654097
15.82714068 9.35786105 1.503579103
122.8960018 60.97903863 3.784216107
14.28518528 8.455671385 4.529454697
15.1071586 7.469734266 4.263835247
14.04557332 7.604900772 3.876783963
16.15326485 9.537074689 4.361803598
17.30634679 7.768740091 4.253173749
16.23842633 8.78451449 3.758869043
12.99544204 7.66073485 2.923282882
13.9861349 6.90906611 2.737716553
15.51187105 8.386220465 2.921134756
13.45356701 7.917197338 2.43473419
16.33945815 7.335735905 2.645771007
14.60214794 7.207350001 2.244819665
13.78477356 7.443170846 2.0074053
14.85178437 8.729559013 2.042646888
15.05743228 6.760160023 1.825704854
14.50869816 7.155557659 1.628110623
14.54738398 7.848062029 1.508358435
15.94000504 9.358713032 1.511566482
123.140793 60.63041385 3.786008537
14.36761467 8.445047428 4.547354685
14.48484369 7.785369532 3.991417524
13.79948855 8.090386135 3.719502516
16.65712705 8.167926457 3.965341856
16.33868006 8.774060535 3.775827041
13.080733 7.65703409 2.937170764
15.56382516 7.62912355 3.041945811
15.43321317 8.28260864 2.901523397
13.44708185 7.857938669 2.42918619
24.74119836 11.0166873 4.000733355
14.59127422 7.146395412 2.23976686
13.80317207 7.398501701 2.006769676
14.88364263 8.68695599 2.043353322
15.02362188 6.689674287 1.819108289
14.54756352 7.119321781 1.630013204
16.21745699 8.684908173 1.678750829
15.90750872 9.27412509 1.505779706
31.6254407 16.90508139 0.647853823
16.09051708 8.600391661 5.165844197
14.78505863 8.629492519 4.671074378
14.678423 7.831468611 4.038119911
13.78973237 8.027920301 3.710216828
16.72255759 8.136465706 3.974956801
16.61109992 8.854801395 3.832486263
13.0888853 7.607986343 2.933746358
15.59070014 7.583061643 3.042637224
15.48467203 8.249137351 2.906426236
13.49761998 7.832019253 2.433963622
24.78392916 10.94472722 4.002194385
14.64164196 7.115452138 2.244136835
13.81880044 7.35239222 2.005753058
14.91451983 8.643742364 2.043942215
25.86206142 11.42083679 3.127203982
14.76803358 7.171141177 1.65224347
14.64362904 7.784362556 1.513356642
15.93330027 9.22378049 1.505535209
53.27025672 25.82360997 1.632910908
31.65242512 16.79485556 0.647348078
16.1142786 8.549633124 5.165026901
15.29808387 8.866116677 4.824539646
14.76507089 7.819600197 4.055338499
13.5503555 7.833001238 3.639328306
16.75448679 8.08852511 3.976629069
16.18520633 8.564110597 3.72814547
13.14702564 7.58791525 2.941546459
15.13044812 7.301886725 2.948429938
15.47589424 8.1836061 2.900052592
13.52928898 7.795011683 2.435350502
24.69143213 10.81347682 3.981881599
14.79546554 7.134177786 2.264348055
13.86935932 7.32478468 2.009820241
14.10780611 8.118492845 1.929964545
14.84285023 7.151279688 1.658151482
14.64894586 7.729640406 1.511448221
31.70291694 16.69720173 0.647330018
16.11148721 8.484911516 5.155763865
14.93221643 8.592984483 4.700819955
14.83716215 7.799586621 4.068547366
13.57601258 7.792362101 3.639781065
16.71748565 8.007513597 3.961997322
16.14287034 8.478420366 3.712384572
13.48455083 7.727666842 3.011746189
15.08792863 7.22438148 2.935811159
14.30418146 7.507942804 2.67615442
14.0737222 8.051282076 2.528893317
16.17560016 7.738586906 2.471923613
13.9963078 7.337001797 2.024945039
13.83604291 7.905697775 1.889460208
26.80229959 11.64005092 3.232198994
14.88177661 7.11386214 1.660054063
31.77437369 16.61051391 0.647745462
16.11356649 8.422961918 5.148135899
14.96269722 8.549525399 4.702136026
14.85843618 7.752681494 4.067839739
13.53131067 7.7116102 3.621436186
16.65364936 7.91421316 3.941095403
16.28263396 8.488193583 3.738519541
13.3008494 7.568279145 2.965517063
14.33939817 7.470404149 2.678442287
14.07945653 7.997330066 2.525503005
16.42568634 7.796393437 2.506474043
14.19737327 7.386965042 2.05074622
13.84641307 7.855371838 1.887576225
26.86892292 11.57113481 3.235937159
14.92330969 7.077551937 1.662257051
14.76678671 7.676357096 1.518718318
14.26505962 8.083667607 1.340816342
31.86423378 16.5332147 0.64854023
16.1333529 8.370384708 5.146229025
14.99137294 8.505008407 4.702925668
14.88387708 7.707953764 4.068311332
13.56762173 7.67725571 3.624833412
16.64070048 7.845568176 3.932316354
16.31730199 8.442702013 3.740514627
13.29579907 7.511501293 2.959239026
14.29126594 7.38967279 2.665204571
14.10650765 7.955553346 2.525965299
25.26482074 10.78856059 4.0581641
16.42353646 7.733724316 2.502513671
14.05516396 7.258265681 2.026978511
13.86179507 7.807981044 1.886398794
26.95457142 11.51011568 3.241983931
14.9224456 7.021144603 1.659753656
